ply
format ascii 1.0
element vertex 1350
property float x
property float y
property float z
property uchar red
property uchar green
property uchar blue
end_header
-1.33105 -0.403957 1.46841 255 0 0
-1.33212 -0.403418 1.46355 255 0 0
-1.33318 -0.40288 1.45869 255 0 0
-1.33424 -0.402342 1.45384 255 0 0
-1.34784 -0.401368 1.40597 255 0 0
-1.34892 -0.400772 1.40112 255 0 0
-1.34999 -0.400175 1.39627 255 0 0
-1.35107 -0.399579 1.39143 255 0 0
-1.35214 -0.398983 1.38658 255 0 0
-1.35322 -0.398386 1.38173 255 0 0
-1.3543 -0.39779 1.37689 255 0 0
-1.35537 -0.397194 1.37204 255 0 0
-1.35645 -0.396597 1.36719 255 0 0
-1.35752 -0.396001 1.36235 255 0 0
-1.03506 -0.346815 0.1978 255 0 0
-1.03192 -0.346572 0.193921 255 0 0
-1.02877 -0.346329 0.190041 255 0 0
-1.02563 -0.346087 0.186162 255 0 0
-1.02248 -0.345844 0.182282 255 0 0
-1.01934 -0.345601 0.178402 255 0 0
-1.01619 -0.345358 0.174523 255 0 0
-1.01305 -0.345115 0.170643 255 0 0
-1.0099 -0.344872 0.166764 255 0 0
-1.00676 -0.34463 0.162884 255 0 0
-0.975914 -0.344275 0.125625 255 0 0
-0.972682 -0.344113 0.121814 255 0 0
-0.969449 -0.343951 0.118003 255 0 0
-0.966217 -0.343789 0.114191 255 0 0
-0.962985 -0.343627 0.11038 255 0 0
-0.959753 -0.343465 0.106569 255 0 0
-0.95652 -0.343302 0.102757 255 0 0
-0.953288 -0.34314 0.098946 255 0 0
-0.950056 -0.342978 0.0951346 255 0 0
-0.946824 -0.342816 0.0913233 255 0 0
0.0368033 -0.352135 -0.507654 255 0 0
0.0417844 -0.352362 -0.508025 255 0 0
0.0467654 -0.352589 -0.508395 255 0 0
0.0517465 -0.352816 -0.508766 255 0 0
0.0567275 -0.353043 -0.509137 255 0 0
0.0617086 -0.35327 -0.509508 255 0 0
0.0666897 -0.353497 -0.509879 255 0 0
0.0716707 -0.353723 -0.51025 255 0 0
0.0766518 -0.35395 -0.510621 255 0 0
0.0816328 -0.354177 -0.510992 255 0 0
0.134543 -0.358066 -0.51234 255 0 0
0.139535 -0.358209 -0.512596 255 0 0
0.144526 -0.358352 -0.512852 255 0 0
0.149517 -0.358495 -0.513109 255 0 0
0.154509 -0.358638 -0.513365 255 0 0
0.1595 -0.358781 -0.513621 255 0 0
0.164491 -0.358924 -0.513877 255 0 0
0.169483 -0.359067 -0.514134 255 0 0
0.174474 -0.35921 -0.51439 255 0 0
0.179466 -0.359353 -0.514646 255 0 0
1.0946 -0.450306 -0.126245 255 0 0
1.09844 -0.450822 -0.123093 255 0 0
1.10229 -0.451338 -0.119941 255 0 0
1.10614 -0.451855 -0.116789 255 0 0
1.10999 -0.452371 -0.113637 255 0 0
1.11383 -0.452887 -0.110485 255 0 0
1.11768 -0.453404 -0.107333 255 0 0
1.12153 -0.45392 -0.104181 255 0 0
1.12537 -0.454436 -0.101029 255 0 0
1.12922 -0.454953 -0.0978768 255 0 0
1.16609 -0.462112 -0.0628307 255 0 0
1.16993 -0.462638 -0.0596659 255 0 0
1.17376 -0.463164 -0.0565011 255 0 0
1.1776 -0.463689 -0.0533363 255 0 0
1.18143 -0.464215 -0.0501715 255 0 0
1.18527 -0.464741 -0.0470067 255 0 0
1.1891 -0.465266 -0.0438419 255 0 0
1.19294 -0.465792 -0.0406771 255 0 0
1.19677 -0.466318 -0.0375123 255 0 0
1.20061 -0.466844 -0.0343475 255 0 0
1.75848 -0.563401 0.772668 255 0 0
1.7596 -0.563741 0.777529 255 0 0
1.76072 -0.564081 0.78239 255 0 0
1.76184 -0.564421 0.787251 255 0 0
1.76296 -0.564761 0.792112 255 0 0
1.76408 -0.5651 0.796973 255 0 0
1.7652 -0.56544 0.801835 255 0 0
1.76632 -0.56578 0.806696 255 0 0
1.76744 -0.56612 0.811557 255 0 0
1.76856 -0.566459 0.816418 255 0 0
1.77477 -0.569653 0.860892 255 0 0
1.77582 -0.569942 0.865771 255 0 0
1.77687 -0.570231 0.870651 255 0 0
1.77792 -0.57052 0.87553 255 0 0
1.77898 -0.570809 0.88041 255 0 0
1.78003 -0.571097 0.885289 255 0 0
1.78108 -0.571386 0.890169 255 0 0
1.78213 -0.571675 0.895048 255 0 0
1.78318 -0.571964 0.899928 255 0 0
1.78424 -0.572253 0.904807 255 0 0
1.40364 -0.614118 2.03428 255 0 0
1.4006 -0.614071 2.03825 255 0 0
1.39756 -0.614025 2.04222 255 0 0
1.39453 -0.613978 2.04619 255 0 0
1.39149 -0.613932 2.05016 255 0 0
1.38845 -0.613885 2.05413 255 0 0
1.38541 -0.613838 2.0581 255 0 0
1.38237 -0.613792 2.06207 255 0 0
1.37933 -0.613745 2.06604 255 0 0
1.37629 -0.613698 2.07001 255 0 0
1.34126 -0.614745 2.11622 255 0 0
1.33816 -0.614661 2.12014 255 0 0
1.33507 -0.614578 2.12407 255 0 0
1.33197 -0.614494 2.12799 255 0 0
1.32887 -0.61441 2.13191 255 0 0
1.32578 -0.614327 2.13584 255 0 0
1.32268 -0.614243 2.13976 255 0 0
1.31958 -0.61416 2.14369 255 0 0
1.31649 -0.614076 2.14761 255 0 0
1.31339 -0.613993 2.15154 255 0 0
0.233981 -0.253787 2.77938 255 0 0
0.228994 -0.25346 2.77954 255 0 0
0.224007 -0.253132 2.7797 255 0 0
0.219021 -0.252805 2.77986 255 0 0
0.214034 -0.252477 2.78002 255 0 0
0.209047 -0.25215 2.78018 255 0 0
0.20406 -0.251822 2.78033 255 0 0
0.199074 -0.251495 2.78049 255 0 0
0.194087 -0.251167 2.78065 255 0 0
0.1891 -0.25084 2.78081 255 0 0
0.135061 -0.248399 2.77953 255 0 0
0.130071 -0.248081 2.77951 255 0 0
0.125082 -0.247764 2.77948 255 0 0
0.120092 -0.247447 2.77945 255 0 0
0.115102 -0.247129 2.77943 255 0 0
0.110112 -0.246812 2.7794 255 0 0
0.105122 -0.246494 2.77938 255 0 0
0.100132 -0.246177 2.77935 255 0 0
0.0951426 -0.245859 2.77932 255 0 0
0.0901528 -0.245542 2.7793 255 0 0
-0.703363 -0.157621 2.372 255 0 0
-0.707293 -0.157001 2.36897 255 0 0
-0.711224 -0.156381 2.36595 255 0 0
-0.715154 -0.155761 2.36292 255 0 0
-0.719085 -0.155142 2.35989 255 0 0
-0.723015 -0.154522 2.35686 255 0 0
-0.726945 -0.153902 2.35383 255 0 0
-0.730875 -0.153282 2.35081 255 0 0
-0.734806 -0.152662 2.34778 255 0 0
-0.738736 -0.152043 2.34475 255 0 0
-0.77944 -0.146905 2.30715 255 0 0
-0.783352 -0.146377 2.30408 255 0 0
-0.787263 -0.145849 2.30101 255 0 0
-0.791175 -0.14532 2.29794 255 0 0
-0.795086 -0.144792 2.29487 255 0 0
-0.798998 -0.144263 2.2918 255 0 0
-0.802909 -0.143735 2.28873 255 0 0
-0.806821 -0.143206 2.28567 255 0 0
-0.810733 -0.142678 2.2826 255 0 0
-0.814644 -0.142149 2.27953 255 0 0
-1.32372 -0.0781143 1.52386 255 0 0
-1.32495 -0.0776702 1.51903 255 0 0
-1.32617 -0.077226 1.51421 255 0 0
-1.32739 -0.0767819 1.50938 255 0 0
-1.32862 -0.0763377 1.50455 255 0 0
-1.32984 -0.0758936 1.49972 255 0 0
-1.33107 -0.0754495 1.4949 255 0 0
-1.33229 -0.0750053 1.49007 255 0 0
-1.33352 -0.0745612 1.48524 255 0 0
-1.33474 -0.074117 1.48042 255 0 0
-1.34695 -0.0698608 1.43226 255 0 0
-1.34797 -0.0693899 1.42739 255 0 0
-1.34898 -0.068919 1.42252 255 0 0
-1.35 -0.0684482 1.41764 255 0 0
-1.35101 -0.0679773 1.41277 255 0 0
-1.35203 -0.0675064 1.4079 255 0 0
-1.35304 -0.0670356 1.40302 255 0 0
-1.35406 -0.0665647 1.39815 255 0 0
-1.35508 -0.0660939 1.39328 255 0 0
-1.35609 -0.065623 1.38841 255 0 0
-1.01528 -0.0146774 0.219337 255 0 0
-1.01205 -0.0144557 0.215531 255 0 0
-1.00881 -0.014234 0.211725 255 0 0
-1.00558 -0.0140122 0.207919 255 0 0
-1.00234 -0.0137905 0.204113 255 0 0
-0.999108 -0.0135687 0.200306 255 0 0
-0.995873 -0.013347 0.1965 255 0 0
-0.992638 -0.0131253 0.192694 255 0 0
-0.989404 -0.0129035 0.188888 255 0 0
-0.986169 -0.0126818 0.185082 255 0 0
-0.95091 -0.0189447 0.146899 255 0 0
-0.947558 -0.0186946 0.143196 255 0 0
-0.944207 -0.0184445 0.139494 255 0 0
-0.940856 -0.0181944 0.135792 255 0 0
-0.937505 -0.0179443 0.132089 255 0 0
-0.934154 -0.0176942 0.128387 255 0 0
-0.930803 -0.0174441 0.124685 255 0 0
-0.927451 -0.017194 0.120982 255 0 0
-0.9241 -0.0169439 0.11728 255 0 0
-0.920749 -0.0166938 0.113578 255 0 0
0.0608546 -0.0205286 -0.496571 255 0 0
0.0658467 -0.0205992 -0.496842 255 0 0
0.0708389 -0.0206698 -0.497114 255 0 0
0.075831 -0.0207404 -0.497386 255 0 0
0.0808231 -0.020811 -0.497657 255 0 0
0.0858152 -0.0208816 -0.497929 255 0 0
0.0908073 -0.0209522 -0.498201 255 0 0
0.0957994 -0.0210228 -0.498473 255 0 0
0.100792 -0.0210934 -0.498744 255 0 0
0.105784 -0.021164 -0.499016 255 0 0
0.158807 -0.0251689 -0.500848 255 0 0
0.163802 -0.0252503 -0.501038 255 0 0
0.168798 -0.0253317 -0.501227 255 0 0
0.173794 -0.0254131 -0.501416 255 0 0
0.17879 -0.0254945 -0.501605 255 0 0
0.183785 -0.0255758 -0.501794 255 0 0
0.188781 -0.0256572 -0.501984 255 0 0
0.193777 -0.0257386 -0.502173 255 0 0
0.198773 -0.02582 -0.502362 255 0 0
0.203768 -0.0259013 -0.502551 255 0 0
1.1232 -0.125403 -0.0973696 255 0 0
1.12703 -0.125764 -0.0941712 255 0 0
1.13085 -0.126125 -0.0909728 255 0 0
1.13468 -0.126486 -0.0877745 255 0 0
1.13851 -0.126847 -0.0845761 255 0 0
1.14233 -0.127207 -0.0813777 255 0 0
1.14616 -0.127568 -0.0781794 255 0 0
1.14999 -0.127929 -0.074981 255 0 0
1.15381 -0.12829 -0.0717826 255 0 0
1.15764 -0.12865 -0.0685843 255 0 0
1.20107 -0.135605 -0.0275487 255 0 0
1.20491 -0.135823 -0.024353 255 0 0
1.20875 -0.136042 -0.0211572 255 0 0
1.21259 -0.136261 -0.0179615 255 0 0
1.21643 -0.136479 -0.0147658 255 0 0
1.22026 -0.136698 -0.01157 255 0 0
1.2241 -0.136917 -0.00837432 255 0 0
1.22794 -0.137135 -0.00517859 255 0 0
1.23178 -0.137354 -0.00198286 255 0 0
1.23562 -0.137573 0.00121287 255 0 0
1.79267 -0.226485 0.784438 255 0 0
1.79369 -0.226522 0.789333 255 0 0
1.79471 -0.226559 0.794228 255 0 0
1.79573 -0.226597 0.799123 255 0 0
1.79675 -0.226634 0.804017 255 0 0
1.79777 -0.226671 0.808912 255 0 0
1.79879 -0.226709 0.813807 255 0 0
1.79981 -0.226746 0.818702 255 0 0
1.80083 -0.226783 0.823596 255 0 0
1.80185 -0.22682 0.828491 255 0 0
1.80795 -0.232526 0.879157 255 0 0
1.80886 -0.232763 0.884067 255 0 0
1.80978 -0.233 0.888977 255 0 0
1.81069 -0.233237 0.893888 255 0 0
1.81161 -0.233473 0.898798 255 0 0
1.81252 -0.23371 0.903708 255 0 0
1.81343 -0.233947 0.908618 255 0 0
1.81435 -0.234184 0.913528 255 0 0
1.81526 -0.234421 0.918438 255 0 0
1.81617 -0.234658 0.923348 255 0 0
1.4285 -0.276821 2.07787 255 0 0
1.42542 -0.276792 2.0818 255 0 0
1.42234 -0.276763 2.08574 255 0 0
1.41925 -0.276734 2.08968 255 0 0
1.41617 -0.276705 2.09361 255 0 0
1.41309 -0.276676 2.09755 255 0 0
1.41001 -0.276647 2.10149 255 0 0
1.40692 -0.276618 2.10542 255 0 0
1.40384 -0.276588 2.10936 255 0 0
1.40076 -0.276559 2.1133 255 0 0
1.3706 -0.277803 2.15217 255 0 0
1.36751 -0.277806 2.1561 255 0 0
1.36443 -0.27781 2.16003 255 0 0
1.36134 -0.277813 2.16397 255 0 0
1.35825 -0.277817 2.1679 255 0 0
1.35517 -0.27782 2.17184 255 0 0
1.35208 -0.277824 2.17577 255 0 0
1.349 -0.277827 2.1797 255 0 0
1.34591 -0.27783 2.18364 255 0 0
1.34282 -0.277834 2.18757 255 0 0
0.266894 0.103371 2.79976 255 0 0
0.261908 0.103679 2.79999 255 0 0
0.256923 0.103988 2.80022 255 0 0
0.251938 0.104296 2.80045 255 0 0
0.246953 0.104605 2.80068 255 0 0
0.241968 0.104913 2.80091 255 0 0
0.236983 0.105221 2.80115 255 0 0
0.231998 0.10553 2.80138 255 0 0
0.227013 0.105838 2.80161 255 0 0
0.222027 0.106147 2.80184 255 0 0
0.167562 0.10678 2.803 255 0 0
0.162582 0.107215 2.80309 255 0 0
0.157602 0.107651 2.80319 255 0 0
0.152622 0.108087 2.80328 255 0 0
0.147642 0.108523 2.80337 255 0 0
0.142662 0.108958 2.80346 255 0 0
0.137681 0.109394 2.80355 255 0 0
0.132701 0.10983 2.80364 255 0 0
0.127721 0.110266 2.80374 255 0 0
0.122741 0.110701 2.80383 255 0 0
-0.68845 0.199756 2.39587 255 0 0
-0.692349 0.200379 2.3928 255 0 0
-0.696248 0.201002 2.38973 255 0 0
-0.700148 0.201626 2.38667 255 0 0
-0.704047 0.202249 2.3836 255 0 0
-0.707946 0.202872 2.38053 255 0 0
-0.711845 0.203495 2.37746 255 0 0
-0.715745 0.204118 2.3744 255 0 0
-0.719644 0.204742 2.37133 255 0 0
-0.723543 0.205365 2.36826 255 0 0
-0.764805 0.209105 2.33068 255 0 0
-0.768687 0.209858 2.32762 255 0 0
-0.772569 0.210611 2.32456 255 0 0
-0.776451 0.211364 2.3215 255 0 0
-0.780332 0.212117 2.31843 255 0 0
-0.784214 0.212869 2.31537 255 0 0
-0.788096 0.213622 2.31231 255 0 0
-0.791978 0.214375 2.30925 255 0 0
-0.79586 0.215128 2.30619 255 0 0
-0.799742 0.215881 2.30313 255 0 0
-1.29394 0.280681 1.55353 255 0 0
-1.29507 0.281107 1.54868 255 0 0
-1.29619 0.281534 1.54383 255 0 0
-1.29732 0.28196 1.53897 255 0 0
-1.29844 0.282387 1.53412 255 0 0
-1.29957 0.282813 1.52927 255 0 0
-1.30069 0.283239 1.52442 255 0 0
-1.30182 0.283666 1.51956 255 0 0
-1.30294 0.284092 1.51471 255 0 0
-1.30407 0.284519 1.50986 255 0 0
-1.31689 0.287644 1.45887 255 0 0
-1.31791 0.288197 1.45401 255 0 0
-1.31892 0.28875 1.44914 255 0 0
-1.31993 0.289303 1.44428 255 0 0
-1.32095 0.289857 1.43941 255 0 0
-1.32196 0.29041 1.43455 255 0 0
-1.32298 0.290963 1.42968 255 0 0
-1.32399 0.291516 1.42482 255 0 0
-1.32501 0.292069 1.41995 255 0 0
-1.32602 0.292622 1.41509 255 0 0
-0.994579 0.346659 0.236299 255 0 0
-0.991303 0.346775 0.232524 255 0 0
-0.988027 0.34689 0.228748 255 0 0
-0.98475 0.347006 0.224973 255 0 0
-0.981474 0.347122 0.221198 255 0 0
-0.978198 0.347237 0.217423 255 0 0
-0.974922 0.347353 0.213647 255 0 0
-0.971645 0.347468 0.209872 255 0 0
-0.968369 0.347584 0.206097 255 0 0
-0.965093 0.3477 0.202321 255 0 0
-0.936638 0.346074 0.163558 255 0 0
-0.933366 0.346187 0.159778 255 0 0
-0.930095 0.3463 0.155999 255 0 0
-0.926824 0.346412 0.152219 255 0 0
-0.923552 0.346525 0.148439 255 0 0
-0.920281 0.346638 0.14466 255 0 0
-0.91701 0.34675 0.14088 255 0 0
-0.913739 0.346863 0.137101 255 0 0
-0.910467 0.346976 0.133321 255 0 0
-0.907196 0.347088 0.129541 255 0 0
0.0879883 0.335371 -0.475573 255 0 0
0.09298 0.335269 -0.475843 255 0 0
0.0979717 0.335167 -0.476113 255 0 0
0.102963 0.335064 -0.476383 255 0 0
0.107955 0.334962 -0.476653 255 0 0
0.112947 0.33486 -0.476922 255 0 0
0.117938 0.334758 -0.477192 255 0 0
0.12293 0.334656 -0.477462 255 0 0
0.127922 0.334553 -0.477732 255 0 0
0.132913 0.334451 -0.478002 255 0 0
0.186882 0.331963 -0.481631 255 0 0
0.191868 0.331685 -0.481891 255 0 0
0.196853 0.331407 -0.482152 255 0 0
0.201839 0.331129 -0.482412 255 0 0
0.206824 0.330851 -0.482672 255 0 0
0.21181 0.330573 -0.482933 255 0 0
0.216795 0.330295 -0.483193 255 0 0
0.221781 0.330017 -0.483454 255 0 0
0.226766 0.329739 -0.483714 255 0 0
0.231752 0.32946 -0.483974 255 0 0
1.15527 0.23088 -0.0587515 255 0 0
1.15918 0.230557 -0.0556518 255 0 0
1.16309 0.230234 -0.0525521 255 0 0
1.167 0.229911 -0.0494525 255 0 0
1.17091 0.229588 -0.0463528 255 0 0
1.17482 0.229265 -0.0432531 255 0 0
1.17873 0.228942 -0.0401535 255 0 0
1.18264 0.228619 -0.0370538 255 0 0
1.18655 0.228296 -0.0339541 255 0 0
1.19046 0.227973 -0.0308545 255 0 0
1.22926 0.22266 0.00430675 255 0 0
1.23311 0.222411 0.00747896 255 0 0
1.23697 0.222162 0.0106512 255 0 0
1.24083 0.221914 0.0138234 255 0 0
1.24468 0.221665 0.0169956 255 0 0
1.24854 0.221416 0.0201678 255 0 0
1.2524 0.221167 0.02334 255 0 0
1.25626 0.220919 0.0265122 255 0 0
1.26011 0.22067 0.0296845 255 0 0
1.26397 0.220421 0.0328567 255 0 0
1.82113 0.133214 0.81774 255 0 0
1.82202 0.132896 0.82265 255 0 0
1.82291 0.132579 0.82756 255 0 0
1.8238 0.132261 0.83247 255 0 0
1.82469 0.131944 0.83738 255 0 0
1.82558 0.131626 0.842291 255 0 0
1.82647 0.131309 0.847201 255 0 0
1.82736 0.130991 0.852111 255 0 0
1.82825 0.130674 0.857021 255 0 0
1.82913 0.130356 0.861931 255 0 0
1.83486 0.124718 0.916139 255 0 0
1.83577 0.12447 0.921049 255 0 0
1.83668 0.124221 0.925959 255 0 0
1.83759 0.123973 0.930868 255 0 0
1.83851 0.123725 0.935778 255 0 0
1.83942 0.123477 0.940688 255 0 0
1.84033 0.123229 0.945598 255 0 0
1.84124 0.122981 0.950508 255 0 0
1.84216 0.122733 0.955418 255 0 0
1.84307 0.122485 0.960327 255 0 0
1.45937 0.0811611 2.07372 255 0 0
1.45644 0.0811065 2.07778 255 0 0
1.45352 0.0810518 2.08183 255 0 0
1.4506 0.0809971 2.08589 255 0 0
1.44768 0.0809424 2.08995 255 0 0
1.44475 0.0808877 2.094 255 0 0
1.44183 0.080833 2.09806 255 0 0
1.43891 0.0807784 2.10212 255 0 0
1.43599 0.0807237 2.10617 255 0 0
1.43307 0.080669 2.11023 255 0 0
1.39929 0.0776723 2.16506 255 0 0
1.3963 0.0776739 2.16907 255 0 0
1.3933 0.0776755 2.17307 255 0 0
1.39031 0.0776771 2.17708 255 0 0
1.38732 0.0776787 2.18108 255 0 0
1.38433 0.0776803 2.18509 255 0 0
1.38133 0.0776819 2.18909 255 0 0
1.37834 0.0776835 2.1931 255 0 0
1.37535 0.0776851 2.19711 255 0 0
1.37236 0.0776866 2.20111 255 0 0
1.49394 -0.406759 0.336287 255 0 0
1.49464 -0.40181 0.3364 255 0 0
1.49534 -0.39686 0.336514 255 0 0
1.49604 -0.39191 0.336627 255 0 0
1.49673 -0.386961 0.336741 255 0 0
1.49743 -0.382011 0.336855 255 0 0
1.49813 -0.377062 0.336968 255 0 0
1.49883 -0.372112 0.337082 255 0 0
1.49953 -0.367162 0.337195 255 0 0
1.50023 -0.362213 0.337309 255 0 0
1.50811 -0.294194 0.340896 255 0 0
1.50868 -0.289232 0.341106 255 0 0
1.50926 -0.284269 0.341316 255 0 0
1.50983 -0.279306 0.341526 255 0 0
1.5104 -0.274344 0.341736 255 0 0
1.51098 -0.269381 0.341946 255 0 0
1.51155 -0.264418 0.342156 255 0 0
1.51212 -0.259456 0.342366 255 0 0
1.51269 -0.254493 0.342576 255 0 0
1.51327 -0.24953 0.342786 255 0 0
-0.464694 -0.14251 -0.400705 255 0 0
-0.464356 -0.137541 -0.400261 255 0 0
-0.464017 -0.132573 -0.399818 255 0 0
-0.463679 -0.127604 -0.399375 255 0 0
-0.46334 -0.122635 -0.398931 255 0 0
-0.463001 -0.117666 -0.398488 255 0 0
-0.462663 -0.112698 -0.398045 255 0 0
-0.462324 -0.107729 -0.397601 255 0 0
-0.461986 -0.10276 -0.397158 255 0 0
-0.461647 -0.0977912 -0.396715 255 0 0
-0.455618 -0.0387763 -0.389045 255 0 0
-0.455232 -0.0338131 -0.388579 255 0 0
-0.454845 -0.02885 -0.388113 255 0 0
-0.454458 -0.0238868 -0.387647 255 0 0
-0.454071 -0.0189236 -0.387181 255 0 0
-0.453685 -0.0139604 -0.386715 255 0 0
-0.453298 -0.00899721 -0.386248 255 0 0
-0.452911 -0.00403402 -0.385782 255 0 0
-0.452524 0.000929161 -0.385316 255 0 0
-0.452137 0.00589235 -0.38485 255 0 0
-1.33856 -0.193401 0.769796 255 0 0
-1.33846 -0.188411 0.770089 255 0 0
-1.33836 -0.18342 0.770382 255 0 0
-1.33827 -0.17843 0.770675 255 0 0
-1.33817 -0.173439 0.770968 255 0 0
-1.33807 -0.168449 0.771261 255 0 0
-1.33797 -0.163459 0.771554 255 0 0
-1.33788 -0.158468 0.771847 255 0 0
-1.33778 -0.153478 0.77214 255 0 0
-1.33768 -0.148487 0.772433 255 0 0
-1.33635 -0.0842026 0.775993 255 0 0
-1.33615 -0.0792154 0.776287 255 0 0
-1.33594 -0.0742283 0.776581 255 0 0
-1.33574 -0.0692412 0.776876 255 0 0
-1.33553 -0.0642541 0.77717 255 0 0
-1.33533 -0.059267 0.777464 255 0 0
-1.33512 -0.0542799 0.777759 255 0 0
-1.33492 -0.0492928 0.778053 255 0 0
-1.33471 -0.0443057 0.778347 255 0 0
-1.33451 -0.0393186 0.778642 255 0 0
-0.184578 -0.404561 2.6659 255 0 0
-0.184307 -0.399597 2.66643 255 0 0
-0.184037 -0.394632 2.66695 255 0 0
-0.183766 -0.389667 2.66748 255 0 0
-0.183496 -0.384702 2.66801 255 0 0
-0.183226 -0.379737 2.66854 255 0 0
-0.182955 -0.374773 2.66906 255 0 0
-0.182685 -0.369808 2.66959 255 0 0
-0.182415 -0.364843 2.67012 255 0 0
-0.182144 -0.359878 2.67065 255 0 0
-0.179444 -0.302725 2.67882 255 0 0
-0.179162 -0.297747 2.6792 255 0 0
-0.178879 -0.29277 2.67958 255 0 0
-0.178597 -0.287792 2.67996 255 0 0
-0.178315 -0.282815 2.68034 255 0 0
-0.178033 -0.277837 2.68072 255 0 0
-0.177751 -0.272859 2.6811 255 0 0
-0.177468 -0.267882 2.68148 255 0 0
-0.177186 -0.262904 2.68185 255 0 0
-0.176904 -0.257927 2.68223 255 0 0
-1.30368 -0.188547 0.652408 255 0 0
-1.30366 -0.183551 0.652596 255 0 0
-1.30364 -0.178555 0.652785 255 0 0
-1.30363 -0.173558 0.652973 255 0 0
-1.30361 -0.168562 0.653162 255 0 0
-1.3036 -0.163565 0.653351 255 0 0
-1.30358 -0.158569 0.653539 255 0 0
-1.30357 -0.153572 0.653728 255 0 0
-1.30355 -0.148576 0.653917 255 0 0
-1.30353 -0.14358 0.654105 255 0 0
-1.30055 -0.0800167 0.657461 255 0 0
-1.30026 -0.0750359 0.657792 255 0 0
-1.29997 -0.0700552 0.658124 255 0 0
-1.29969 -0.0650744 0.658455 255 0 0
-1.2994 -0.0600936 0.658786 255 0 0
-1.29911 -0.0551129 0.659118 255 0 0
-1.29883 -0.0501321 0.659449 255 0 0
-1.29854 -0.0451513 0.659781 255 0 0
-1.29825 -0.0401706 0.660112 255 0 0
-1.29797 -0.0351898 0.660443 255 0 0
-0.346757 -0.148166 -0.445567 255 0 0
-0.346506 -0.143177 -0.445363 255 0 0
-0.346255 -0.138187 -0.445159 255 0 0
-0.346004 -0.133198 -0.444954 255 0 0
-0.345753 -0.128208 -0.44475 255 0 0
-0.345501 -0.123219 -0.444546 255 0 0
-0.34525 -0.118229 -0.444341 255 0 0
-0.344999 -0.11324 -0.444137 255 0 0
-0.344748 -0.10825 -0.443933 255 0 0
-0.344497 -0.103261 -0.443729 255 0 0
-0.339687 -0.0393183 -0.435152 255 0 0
-0.339411 -0.0343397 -0.434781 255 0 0
-0.339134 -0.0293612 -0.434411 255 0 0
-0.338858 -0.0243826 -0.43404 255 0 0
-0.338581 -0.019404 -0.43367 255 0 0
-0.338305 -0.0144254 -0.433299 255 0 0
-0.338028 -0.00944687 -0.432929 255 0 0
-0.337751 -0.0044683 -0.432558 255 0 0
-0.337475 0.000510275 -0.432187 255 0 0
-0.337198 0.00548885 -0.431817 255 0 0
0.216889 -0.584324 2.77533 0 255 0
0.217348 -0.579375 2.77587 0 255 0
0.217807 -0.574425 2.77641 0 255 0
0.218265 -0.569475 2.77695 0 255 0
0.218724 -0.564526 2.77749 0 255 0
0.219183 -0.559576 2.77803 0 255 0
0.219641 -0.554626 2.77857 0 255 0
0.2201 -0.549677 2.77911 0 255 0
0.220558 -0.544727 2.77964 0 255 0
0.221017 -0.539777 2.78018 0 255 0
0.221476 -0.534828 2.78072 0 255 0
0.221934 -0.529878 2.78126 0 255 0
0.222393 -0.524928 2.7818 0 255 0
0.222852 -0.519979 2.78234 0 255 0
0.22331 -0.515029 2.78288 0 255 0
0.132996 -0.58082 2.77722 0 255 0
0.133505 -0.575876 2.77777 0 255 0
0.134013 -0.570932 2.77832 0 255 0
0.134521 -0.565988 2.77887 0 255 0
0.135029 -0.561045 2.77942 0 255 0
0.135538 -0.556101 2.77997 0 255 0
0.136046 -0.551157 2.78052 0 255 0
0.136554 -0.546214 2.78106 0 255 0
0.137063 -0.54127 2.78161 0 255 0
0.137571 -0.536326 2.78216 0 255 0
0.138079 -0.531382 2.78271 0 255 0
0.138587 -0.526438 2.78326 0 255 0
0.139096 -0.521495 2.78381 0 255 0
0.139604 -0.516551 2.78436 0 255 0
0.140112 -0.511607 2.78491 0 255 0
-0.693168 -0.473343 2.36614 0 255 0
-0.692882 -0.468402 2.36685 0 255 0
-0.692595 -0.463462 2.36757 0 255 0
-0.692309 -0.458521 2.36828 0 255 0
-0.692023 -0.45358 2.36899 0 255 0
-0.691737 -0.44864 2.36971 0 255 0
-0.69145 -0.443699 2.37042 0 255 0
-0.691164 -0.438759 2.37113 0 255 0
-0.690878 -0.433818 2.37185 0 255 0
-0.690592 -0.428877 2.37256 0 255 0
-0.690306 -0.423937 2.37327 0 255 0
-0.690019 -0.418996 2.37398 0 255 0
-0.689733 -0.414056 2.3747 0 255 0
-0.689447 -0.409115 2.37541 0 255 0
-0.689161 -0.404174 2.37612 0 255 0
-0.769955 -0.464637 2.30989 0 255 0
-0.769617 -0.459703 2.31063 0 255 0
-0.769279 -0.454769 2.31136 0 255 0
-0.768941 -0.449835 2.3121 0 255 0
-0.768603 -0.444901 2.31283 0 255 0
-0.768265 -0.439967 2.31357 0 255 0
-0.767927 -0.435033 2.3143 0 255 0
-0.767589 -0.430099 2.31504 0 255 0
-0.767251 -0.425165 2.31578 0 255 0
-0.766914 -0.420231 2.31651 0 255 0
-0.766576 -0.415297 2.31725 0 255 0
-0.766238 -0.410362 2.31798 0 255 0
-0.7659 -0.405428 2.31872 0 255 0
-0.765562 -0.400494 2.31945 0 255 0
-0.765224 -0.39556 2.32019 0 255 0
-1.32469 -0.407187 1.49755 0 255 0
-1.32465 -0.402216 1.49809 0 255 0
-1.32462 -0.397246 1.49863 0 255 0
-1.32458 -0.392276 1.49917 0 255 0
-1.32454 -0.387305 1.49972 0 255 0
-1.3245 -0.382335 1.50026 0 255 0
-1.32446 -0.377365 1.5008 0 255 0
-1.32443 -0.372394 1.50134 0 255 0
-1.32439 -0.367424 1.50189 0 255 0
-1.32435 -0.362454 1.50243 0 255 0
-1.32431 -0.357483 1.50297 0 255 0
-1.32428 -0.352513 1.50351 0 255 0
-1.32424 -0.347543 1.50406 0 255 0
-1.3242 -0.342573 1.5046 0 255 0
-1.32416 -0.337602 1.50514 0 255 0
-1.34784 -0.401368 1.40597 0 255 0
-1.34778 -0.396404 1.40656 0 255 0
-1.34773 -0.39144 1.40716 0 255 0
-1.34767 -0.386477 1.40776 0 255 0
-1.34761 -0.381513 1.40836 0 255 0
-1.34755 -0.376549 1.40896 0 255 0
-1.3475 -0.371585 1.40955 0 255 0
-1.34744 -0.366622 1.41015 0 255 0
-1.34738 -0.361658 1.41075 0 255 0
-1.34732 -0.356694 1.41135 0 255 0
-1.34727 -0.35173 1.41195 0 255 0
-1.34721 -0.346766 1.41254 0 255 0
-1.34715 -0.341803 1.41314 0 255 0
-1.34709 -0.336839 1.41374 0 255 0
-1.34703 -0.331875 1.41434 0 255 0
-1.03506 -0.346815 0.1978 0 255 0
-1.03513 -0.341822 0.198059 0 255 0
-1.0352 -0.336829 0.198317 0 255 0
-1.03526 -0.331836 0.198575 0 255 0
-1.03533 -0.326844 0.198833 0 255 0
-1.0354 -0.321851 0.199092 0 255 0
-1.03546 -0.316858 0.19935 0 255 0
-1.03553 -0.311865 0.199608 0 255 0
-1.0356 -0.306872 0.199867 0 255 0
-1.03567 -0.301879 0.200125 0 255 0
-1.03573 -0.296886 0.200383 0 255 0
-1.0358 -0.291893 0.200642 0 255 0
-1.03587 -0.286901 0.2009 0 255 0
-1.03593 -0.281908 0.201158 0 255 0
-1.036 -0.276915 0.201417 0 255 0
-0.975914 -0.344275 0.125625 0 255 0
-0.975937 -0.339279 0.125818 0 255 0
-0.97596 -0.334283 0.126011 0 255 0
-0.975984 -0.329286 0.126204 0 255 0
-0.976007 -0.32429 0.126396 0 255 0
-0.97603 -0.319294 0.126589 0 255 0
-0.976054 -0.314298 0.126782 0 255 0
-0.976077 -0.309301 0.126974 0 255 0
-0.9761 -0.304305 0.127167 0 255 0
-0.976124 -0.299309 0.12736 0 255 0
-0.976147 -0.294313 0.127553 0 255 0
-0.97617 -0.289317 0.127745 0 255 0
-0.976193 -0.28432 0.127938 0 255 0
-0.976217 -0.279324 0.128131 0 255 0
-0.97624 -0.274328 0.128323 0 255 0
0.0368033 -0.352135 -0.507654 0 255 0
0.0370419 -0.347143 -0.507504 0 255 0
0.0372805 -0.342151 -0.507355 0 255 0
0.0375191 -0.337158 -0.507206 0 255 0
0.0377576 -0.332166 -0.507057 0 255 0
0.0379962 -0.327174 -0.506908 0 255 0
0.0382348 -0.322182 -0.506759 0 255 0
0.0384734 -0.31719 -0.50661 0 255 0
0.0387119 -0.312198 -0.50646 0 255 0
0.0389505 -0.307206 -0.506311 0 255 0
0.0391891 -0.302214 -0.506162 0 255 0
0.0394277 -0.297222 -0.506013 0 255 0
0.0396663 -0.29223 -0.505864 0 255 0
0.0399048 -0.287238 -0.505715 0 255 0
0.0401434 -0.282246 -0.505566 0 255 0
0.134543 -0.358066 -0.51234 0 255 0
0.134694 -0.353071 -0.512182 0 255 0
0.134845 -0.348076 -0.512024 0 255 0
0.134997 -0.34308 -0.511867 0 255 0
0.135148 -0.338085 -0.511709 0 255 0
0.135299 -0.33309 -0.511551 0 255 0
0.13545 -0.328095 -0.511393 0 255 0
0.135601 -0.3231 -0.511236 0 255 0
0.135752 -0.318104 -0.511078 0 255 0
0.135903 -0.313109 -0.51092 0 255 0
0.136055 -0.308114 -0.510763 0 255 0
0.136206 -0.303119 -0.510605 0 255 0
0.136357 -0.298123 -0.510447 0 255 0
0.136508 -0.293128 -0.510289 0 255 0
0.136659 -0.288133 -0.510132 0 255 0
1.0946 -0.450306 -0.126245 0 255 0
1.09514 -0.445338 -0.126091 0 255 0
1.09568 -0.440369 -0.125937 0 255 0
1.09622 -0.435401 -0.125782 0 255 0
1.09676 -0.430433 -0.125628 0 255 0
1.0973 -0.425464 -0.125474 0 255 0
1.09784 -0.420496 -0.12532 0 255 0
1.09838 -0.415528 -0.125165 0 255 0
1.09892 -0.410559 -0.125011 0 255 0
1.09946 -0.405591 -0.124857 0 255 0
1.1 -0.400623 -0.124702 0 255 0
1.10054 -0.395654 -0.124548 0 255 0
1.10108 -0.390686 -0.124394 0 255 0
1.10162 -0.385718 -0.124239 0 255 0
1.10216 -0.380749 -0.124085 0 255 0
1.16609 -0.462112 -0.0628307 0 255 0
1.16665 -0.457146 -0.0626842 0 255 0
1.16721 -0.45218 -0.0625378 0 255 0
1.16777 -0.447213 -0.0623913 0 255 0
1.16833 -0.442247 -0.0622449 0 255 0
1.16889 -0.43728 -0.0620984 0 255 0
1.16945 -0.432314 -0.061952 0 255 0
1.17001 -0.427348 -0.0618055 0 255 0
1.17057 -0.422381 -0.0616591 0 255 0
1.17113 -0.417415 -0.0615126 0 255 0
1.17169 -0.412448 -0.0613662 0 255 0
1.17225 -0.407482 -0.0612197 0 255 0
1.17281 -0.402516 -0.0610733 0 255 0
1.17337 -0.397549 -0.0609268 0 255 0
1.17393 -0.392583 -0.0607804 0 255 0
1.75848 -0.563401 0.772668 0 255 0
1.75909 -0.558443 0.772874 0 255 0
1.75969 -0.553484 0.773081 0 255 0
1.7603 -0.548526 0.773288 0 255 0
1.76091 -0.543567 0.773494 0 255 0
1.76152 -0.538608 0.773701 0 255 0
1.76213 -0.53365 0.773907 0 255 0
1.76273 -0.528691 0.774114 0 255 0
1.76334 -0.523732 0.77432 0 255 0
1.76395 -0.518774 0.774527 0 255 0
1.76456 -0.513815 0.774733 0 255 0
1.76516 -0.508857 0.77494 0 255 0
1.76577 -0.503898 0.775147 0 255 0
1.76638 -0.498939 0.775353 0 255 0
1.76699 -0.493981 0.77556 0 255 0
1.77477 -0.569653 0.860892 0 255 0
1.77536 -0.564692 0.861057 0 255 0
1.77596 -0.55973 0.861222 0 255 0
1.77656 -0.554769 0.861387 0 255 0
1.77715 -0.549807 0.861552 0 255 0
1.77775 -0.544845 0.861717 0 255 0
1.77835 -0.539884 0.861883 0 255 0
1.77894 -0.534922 0.862048 0 255 0
1.77954 -0.529961 0.862213 0 255 0
1.78013 -0.524999 0.862378 0 255 0
1.78073 -0.520037 0.862543 0 255 0
1.78133 -0.515076 0.862708 0 255 0
1.78192 -0.510114 0.862873 0 255 0
1.78252 -0.505153 0.863039 0 255 0
1.78311 -0.500191 0.863204 0 255 0
1.40364 -0.614118 2.03428 0 255 0
1.40426 -0.609173 2.03469 0 255 0
1.40487 -0.604228 2.0351 0 255 0
1.40548 -0.599282 2.03551 0 255 0
1.40609 -0.594337 2.03592 0 255 0
1.40671 -0.589392 2.03633 0 255 0
1.40732 -0.584447 2.03675 0 255 0
1.40793 -0.579502 2.03716 0 255 0
1.40855 -0.574556 2.03757 0 255 0
1.40916 -0.569611 2.03798 0 255 0
1.40977 -0.564666 2.03839 0 255 0
1.41038 -0.559721 2.0388 0 255 0
1.411 -0.554775 2.03921 0 255 0
1.41161 -0.54983 2.03962 0 255 0
1.41222 -0.544885 2.04003 0 255 0
1.34126 -0.614745 2.11622 0 255 0
1.34189 -0.609801 2.11661 0 255 0
1.34253 -0.604856 2.117 0 255 0
1.34316 -0.599912 2.1174 0 255 0
1.34379 -0.594968 2.11779 0 255 0
1.34443 -0.590024 2.11819 0 255 0
1.34506 -0.58508 2.11858 0 255 0
1.34569 -0.580136 2.11897 0 255 0
1.34632 -0.575192 2.11937 0 255 0
1.34696 -0.570247 2.11976 0 255 0
1.34759 -0.565303 2.12016 0 255 0
1.34822 -0.560359 2.12055 0 255 0
1.34885 -0.555415 2.12094 0 255 0
1.34949 -0.550471 2.12134 0 255 0
1.35012 -0.545527 2.12173 0 255 0
0.233981 -0.253787 2.77938 0 255 0
0.234325 -0.248834 2.77997 0 255 0
0.234669 -0.24388 2.78055 0 255 0
0.235013 -0.238926 2.78113 0 255 0
0.235357 -0.233972 2.78172 0 255 0
0.235701 -0.229018 2.7823 0 255 0
0.236045 -0.224064 2.78288 0 255 0
0.236388 -0.21911 2.78347 0 255 0
0.236732 -0.214156 2.78405 0 255 0
0.237076 -0.209202 2.78464 0 255 0
0.23742 -0.204249 2.78522 0 255 0
0.237764 -0.199295 2.7858 0 255 0
0.238108 -0.194341 2.78639 0 255 0
0.238452 -0.189387 2.78697 0 255 0
0.238796 -0.184433 2.78755 0 255 0
0.135061 -0.248399 2.77953 0 255 0
0.135373 -0.243445 2.78014 0 255 0
0.135685 -0.238491 2.78074 0 255 0
0.135997 -0.233537 2.78134 0 255 0
0.136309 -0.228583 2.78194 0 255 0
0.136621 -0.223629 2.78254 0 255 0
0.136933 -0.218675 2.78314 0 255 0
0.137245 -0.213721 2.78374 0 255 0
0.137557 -0.208768 2.78434 0 255 0
0.137869 -0.203814 2.78494 0 255 0
0.138181 -0.19886 2.78554 0 255 0
0.138493 -0.193906 2.78615 0 255 0
0.138805 -0.188952 2.78675 0 255 0
0.139117 -0.183998 2.78735 0 255 0
0.139429 -0.179044 2.78795 0 255 0
-0.703363 -0.157621 2.372 0 255 0
-0.703008 -0.152664 2.37256 0 255 0
-0.702652 -0.147708 2.37311 0 255 0
-0.702297 -0.142751 2.37366 0 255 0
-0.701942 -0.137794 2.37422 0 255 0
-0.701586 -0.132838 2.37477 0 255 0
-0.701231 -0.127881 2.37532 0 255 0
-0.700876 -0.122925 2.37588 0 255 0
-0.700521 -0.117968 2.37643 0 255 0
-0.700165 -0.113012 2.37698 0 255 0
-0.69981 -0.108055 2.37754 0 255 0
-0.699455 -0.103098 2.37809 0 255 0
-0.699099 -0.0981419 2.37864 0 255 0
-0.698744 -0.0931854 2.3792 0 255 0
-0.698389 -0.0882288 2.37975 0 255 0
-0.77944 -0.146905 2.30715 0 255 0
-0.779173 -0.141939 2.30767 0 255 0
-0.778907 -0.136973 2.30818 0 255 0
-0.77864 -0.132007 2.3087 0 255 0
-0.778373 -0.127041 2.30921 0 255 0
-0.778107 -0.122074 2.30973 0 255 0
-0.77784 -0.117108 2.31024 0 255 0
-0.777573 -0.112142 2.31076 0 255 0
-0.777307 -0.107176 2.31127 0 255 0
-0.77704 -0.102209 2.31179 0 255 0
-0.776773 -0.0972432 2.3123 0 255 0
-0.776507 -0.092277 2.31282 0 255 0
-0.77624 -0.0873108 2.31333 0 255 0
-0.775973 -0.0823445 2.31385 0 255 0
-0.775707 -0.0773783 2.31436 0 255 0
-1.32372 -0.0781143 1.52386 0 255 0
-1.32351 -0.0731352 1.52426 0 255 0
-1.32329 -0.0681562 1.52467 0 255 0
-1.32307 -0.0631772 1.52507 0 255 0
-1.32286 -0.0581981 1.52548 0 255 0
-1.32264 -0.0532191 1.52588 0 255 0
-1.32243 -0.04824 1.52628 0 255 0
-1.32221 -0.043261 1.52669 0 255 0
-1.322 -0.0382819 1.52709 0 255 0
-1.32178 -0.0333029 1.52749 0 255 0
-1.32157 -0.0283238 1.5279 0 255 0
-1.32135 -0.0233448 1.5283 0 255 0
-1.32114 -0.0183658 1.5287 0 255 0
-1.32092 -0.0133867 1.52911 0 255 0
-1.32071 -0.00840767 1.52951 0 255 0
-1.34695 -0.0698608 1.43226 0 255 0
-1.34673 -0.0648846 1.4327 0 255 0
-1.34651 -0.0599085 1.43313 0 255 0
-1.34628 -0.0549324 1.43357 0 255 0
-1.34606 -0.0499562 1.434 0 255 0
-1.34584 -0.0449801 1.43444 0 255 0
-1.34562 -0.040004 1.43487 0 255 0
-1.3454 -0.0350279 1.4353 0 255 0
-1.34517 -0.0300517 1.43574 0 255 0
-1.34495 -0.0250756 1.43617 0 255 0
-1.34473 -0.0200995 1.43661 0 255 0
-1.34451 -0.0151233 1.43704 0 255 0
-1.34429 -0.0101472 1.43748 0 255 0
-1.34406 -0.00517108 1.43791 0 255 0
-1.34384 -0.000194953 1.43835 0 255 0
-1.01528 -0.0146774 0.219337 0 255 0
-1.01514 -0.0096968 0.219752 0 255 0
-1.01499 -0.00471615 0.220166 0 255 0
-1.01484 0.000264493 0.220581 0 255 0
-1.0147 0.00524514 0.220995 0 255 0
-1.01455 0.0102258 0.22141 0 255 0
-1.0144 0.0152064 0.221824 0 255 0
-1.01426 0.0201871 0.222239 0 255 0
-1.01411 0.0251677 0.222653 0 255 0
-1.01397 0.0301484 0.223068 0 255 0
-1.01382 0.035129 0.223482 0 255 0
-1.01367 0.0401096 0.223896 0 255 0
-1.01353 0.0450903 0.224311 0 255 0
-1.01338 0.0500709 0.224725 0 255 0
-1.01323 0.0550516 0.22514 0 255 0
-0.95091 -0.0189447 0.146899 0 255 0
-0.950809 -0.013964 0.147326 0 255 0
-0.950709 -0.00898332 0.147753 0 255 0
-0.950608 -0.00400263 0.148181 0 255 0
-0.950508 0.000978067 0.148608 0 255 0
-0.950408 0.00595876 0.149035 0 255 0
-0.950307 0.0109395 0.149462 0 255 0
-0.950207 0.0159202 0.14989 0 255 0
-0.950107 0.0209008 0.150317 0 255 0
-0.950006 0.0258815 0.150744 0 255 0
-0.949906 0.0308622 0.151172 0 255 0
-0.949805 0.0358429 0.151599 0 255 0
-0.949705 0.0408236 0.152026 0 255 0
-0.949605 0.0458043 0.152454 0 255 0
-0.949504 0.050785 0.152881 0 255 0
0.0608546 -0.0205286 -0.496571 0 255 0
0.0609267 -0.0155292 -0.496546 0 255 0
0.0609987 -0.0105298 -0.496521 0 255 0
0.0610708 -0.00553039 -0.496496 0 255 0
0.0611428 -0.00053097 -0.496471 0 255 0
0.0612149 0.00446845 -0.496446 0 255 0
0.061287 0.00946787 -0.496422 0 255 0
0.061359 0.0144673 -0.496397 0 255 0
0.0614311 0.0194667 -0.496372 0 255 0
0.0615031 0.0244661 -0.496347 0 255 0
0.0615752 0.0294655 -0.496322 0 255 0
0.0616472 0.034465 -0.496297 0 255 0
0.0617193 0.0394644 -0.496272 0 255 0
0.0617913 0.0444638 -0.496248 0 255 0
0.0618634 0.0494632 -0.496223 0 255 0
0.158807 -0.0251689 -0.500848 0 255 0
0.158889 -0.0201696 -0.500834 0 255 0
0.158971 -0.0151703 -0.500819 0 255 0
0.159053 -0.010171 -0.500804 0 255 0
0.159134 -0.00517171 -0.50079 0 255 0
0.159216 -0.000172405 -0.500775 0 255 0
0.159298 0.0048269 -0.50076 0 255 0
0.15938 0.00982621 -0.500746 0 255 0
0.159462 0.0148255 -0.500731 0 255 0
0.159544 0.0198248 -0.500716 0 255 0
0.159626 0.0248241 -0.500702 0 255 0
0.159708 0.0298234 -0.500687 0 255 0
0.15979 0.0348227 -0.500672 0 255 0
0.159872 0.039822 -0.500658 0 255 0
0.159954 0.0448214 -0.500643 0 255 0
1.1232 -0.125403 -0.0973696 0 255 0
1.12363 -0.120422 -0.0973145 0 255 0
1.12405 -0.11544 -0.0972593 0 255 0
1.12447 -0.110458 -0.0972042 0 255 0
1.1249 -0.105477 -0.0971491 0 255 0
1.12532 -0.100495 -0.097094 0 255 0
1.12574 -0.0955131 -0.0970389 0 255 0
1.12617 -0.0905314 -0.0969838 0 255 0
1.12659 -0.0855497 -0.0969286 0 255 0
1.12701 -0.080568 -0.0968735 0 255 0
1.12744 -0.0755863 -0.0968184 0 255 0
1.12786 -0.0706046 -0.0967633 0 255 0
1.12829 -0.0656229 -0.0967082 0 255 0
1.12871 -0.0606411 -0.0966531 0 255 0
1.12913 -0.0556594 -0.096598 0 255 0
1.20107 -0.135605 -0.0275487 0 255 0
1.20142 -0.130618 -0.0276314 0 255 0
1.20177 -0.125631 -0.0277141 0 255 0
1.20213 -0.120644 -0.0277968 0 255 0
1.20248 -0.115657 -0.0278795 0 255 0
1.20283 -0.11067 -0.0279622 0 255 0
1.20319 -0.105684 -0.0280449 0 255 0
1.20354 -0.100697 -0.0281276 0 255 0
1.20389 -0.0957099 -0.0282103 0 255 0
1.20424 -0.090723 -0.028293 0 255 0
1.2046 -0.0857362 -0.0283757 0 255 0
1.20495 -0.0807493 -0.0284584 0 255 0
1.2053 -0.0757625 -0.0285411 0 255 0
1.20566 -0.0707756 -0.0286238 0 255 0
1.20601 -0.0657888 -0.0287065 0 255 0
1.79267 -0.226485 0.784438 0 255 0
1.7932 -0.221514 0.784365 0 255 0
1.79374 -0.216543 0.784291 0 255 0
1.79428 -0.211573 0.784217 0 255 0
1.79481 -0.206602 0.784144 0 255 0
1.79535 -0.201631 0.78407 0 255 0
1.79588 -0.19666 0.783996 0 255 0
1.79642 -0.19169 0.783922 0 255 0
1.79695 -0.186719 0.783849 0 255 0
1.79749 -0.181748 0.783775 0 255 0
1.79802 -0.176778 0.783701 0 255 0
1.79856 -0.171807 0.783628 0 255 0
1.7991 -0.166836 0.783554 0 255 0
1.79963 -0.161866 0.78348 0 255 0
1.80017 -0.156895 0.783407 0 255 0
1.80795 -0.232526 0.879157 0 255 0
1.80858 -0.227567 0.87928 0 255 0
1.80921 -0.222608 0.879402 0 255 0
1.80983 -0.217649 0.879525 0 255 0
1.81046 -0.21269 0.879647 0 255 0
1.81109 -0.207731 0.87977 0 255 0
1.81172 -0.202772 0.879892 0 255 0
1.81235 -0.197813 0.880015 0 255 0
1.81297 -0.192854 0.880137 0 255 0
1.8136 -0.187895 0.88026 0 255 0
1.81423 -0.182937 0.880382 0 255 0
1.81486 -0.177978 0.880505 0 255 0
1.81548 -0.173019 0.880627 0 255 0
1.81611 -0.16806 0.88075 0 255 0
1.81674 -0.163101 0.880872 0 255 0
1.4285 -0.276821 2.07787 0 255 0
1.42902 -0.271861 2.07823 0 255 0
1.42953 -0.266901 2.0786 0 255 0
1.43005 -0.261941 2.07897 0 255 0
1.43056 -0.256982 2.07934 0 255 0
1.43108 -0.252022 2.0797 0 255 0
1.43159 -0.247062 2.08007 0 255 0
1.43211 -0.242102 2.08044 0 255 0
1.43262 -0.237142 2.0808 0 255 0
1.43314 -0.232182 2.08117 0 255 0
1.43365 -0.227223 2.08154 0 255 0
1.43417 -0.222263 2.0819 0 255 0
1.43468 -0.217303 2.08227 0 255 0
1.4352 -0.212343 2.08264 0 255 0
1.43572 -0.207383 2.08301 0 255 0
1.3706 -0.277803 2.15217 0 255 0
1.37109 -0.272843 2.15256 0 255 0
1.37159 -0.267883 2.15295 0 255 0
1.37208 -0.262922 2.15334 0 255 0
1.37257 -0.257962 2.15373 0 255 0
1.37307 -0.253002 2.15412 0 255 0
1.37356 -0.248042 2.15451 0 255 0
1.37405 -0.243082 2.1549 0 255 0
1.37455 -0.238121 2.1553 0 255 0
1.37504 -0.233161 2.15569 0 255 0
1.37553 -0.228201 2.15608 0 255 0
1.37603 -0.223241 2.15647 0 255 0
1.37652 -0.218281 2.15686 0 255 0
1.37701 -0.21332 2.15725 0 255 0
1.37751 -0.20836 2.15764 0 255 0
0.266894 0.103371 2.79976 0 255 0
0.267212 0.108356 2.79998 0 255 0
0.267531 0.113341 2.8002 0 255 0
0.267849 0.118326 2.80042 0 255 0
0.268168 0.123311 2.80063 0 255 0
0.268486 0.128296 2.80085 0 255 0
0.268805 0.133281 2.80107 0 255 0
0.269124 0.138266 2.80129 0 255 0
0.269442 0.143251 2.80151 0 255 0
0.269761 0.148236 2.80173 0 255 0
0.270079 0.153221 2.80195 0 255 0
0.270398 0.158206 2.80217 0 255 0
0.270717 0.163191 2.80239 0 255 0
0.271035 0.168176 2.80261 0 255 0
0.271354 0.173161 2.80283 0 255 0
0.167562 0.10678 2.803 0 255 0
0.168002 0.111755 2.80323 0 255 0
0.168441 0.11673 2.80347 0 255 0
0.168881 0.121705 2.8037 0 255 0
0.169321 0.126681 2.80393 0 255 0
0.16976 0.131656 2.80416 0 255 0
0.1702 0.136631 2.80439 0 255 0
0.170639 0.141606 2.80462 0 255 0
0.171079 0.146582 2.80486 0 255 0
0.171518 0.151557 2.80509 0 255 0
0.171958 0.156532 2.80532 0 255 0
0.172397 0.161508 2.80555 0 255 0
0.172837 0.166483 2.80578 0 255 0
0.173277 0.171458 2.80601 0 255 0
0.173716 0.176433 2.80624 0 255 0
-0.68845 0.199756 2.39587 0 255 0
-0.687861 0.204714 2.39613 0 255 0
-0.687272 0.209673 2.39638 0 255 0
-0.686683 0.214631 2.39664 0 255 0
-0.686094 0.21959 2.3969 0 255 0
-0.685505 0.224548 2.39716 0 255 0
-0.684916 0.229507 2.39742 0 255 0
-0.684327 0.234465 2.39768 0 255 0
-0.683738 0.239424 2.39794 0 255 0
-0.683149 0.244382 2.39819 0 255 0
-0.68256 0.249341 2.39845 0 255 0
-0.681971 0.254299 2.39871 0 255 0
-0.681382 0.259257 2.39897 0 255 0
-0.680793 0.264216 2.39923 0 255 0
-0.680204 0.269174 2.39949 0 255 0
-0.764805 0.209105 2.33068 0 255 0
-0.764129 0.214046 2.33103 0 255 0
-0.763454 0.218987 2.33139 0 255 0
-0.762778 0.223929 2.33175 0 255 0
-0.762102 0.22887 2.33211 0 255 0
-0.761427 0.233811 2.33247 0 255 0
-0.760751 0.238752 2.33283 0 255 0
-0.760076 0.243693 2.33319 0 255 0
-0.7594 0.248634 2.33354 0 255 0
-0.758724 0.253576 2.3339 0 255 0
-0.758049 0.258517 2.33426 0 255 0
-0.757373 0.263458 2.33462 0 255 0
-0.756697 0.268399 2.33498 0 255 0
-0.756022 0.27334 2.33534 0 255 0
-0.755346 0.278281 2.3357 0 255 0
-1.29394 0.280681 1.55353 0 255 0
-1.2936 0.285656 1.55389 0 255 0
-1.29325 0.290631 1.55425 0 255 0
-1.29291 0.295607 1.5546 0 255 0
-1.29256 0.300582 1.55496 0 255 0
-1.29221 0.305557 1.55532 0 255 0
-1.29187 0.310532 1.55568 0 255 0
-1.29152 0.315508 1.55603 0 255 0
-1.29118 0.320483 1.55639 0 255 0
-1.29083 0.325458 1.55675 0 255 0
-1.29049 0.330433 1.5571 0 255 0
-1.29014 0.335409 1.55746 0 255 0
-1.28979 0.340384 1.55782 0 255 0
-1.28945 0.345359 1.55817 0 255 0
-1.2891 0.350334 1.55853 0 255 0
-1.31689 0.287644 1.45887 0 255 0
-1.31651 0.292606 1.45936 0 255 0
-1.31613 0.297568 1.45984 0 255 0
-1.31576 0.30253 1.46033 0 255 0
-1.31538 0.307492 1.46081 0 255 0
-1.315 0.312454 1.4613 0 255 0
-1.31462 0.317416 1.46178 0 255 0
-1.31424 0.322378 1.46227 0 255 0
-1.31386 0.32734 1.46275 0 255 0
-1.31348 0.332302 1.46324 0 255 0
-1.3131 0.337264 1.46372 0 255 0
-1.31272 0.342225 1.46421 0 255 0
-1.31235 0.347187 1.46469 0 255 0
-1.31197 0.352149 1.46518 0 255 0
-1.31159 0.357111 1.46567 0 255 0
-0.994579 0.346659 0.236299 0 255 0
-0.994283 0.351634 0.236708 0 255 0
-0.993988 0.356608 0.237117 0 255 0
-0.993692 0.361583 0.237526 0 255 0
-0.993396 0.366557 0.237935 0 255 0
-0.993101 0.371532 0.238343 0 255 0
-0.992805 0.376506 0.238752 0 255 0
-0.992509 0.381481 0.239161 0 255 0
-0.992214 0.386455 0.23957 0 255 0
-0.991918 0.39143 0.239979 0 255 0
-0.991623 0.396404 0.240388 0 255 0
-0.991327 0.401378 0.240797 0 255 0
-0.991031 0.406353 0.241206 0 255 0
-0.990736 0.411327 0.241615 0 255 0
-0.99044 0.416302 0.242024 0 255 0
-0.936638 0.346074 0.163558 0 255 0
-0.93634 0.351049 0.163964 0 255 0
-0.936041 0.356023 0.164371 0 255 0
-0.935743 0.360998 0.164777 0 255 0
-0.935445 0.365972 0.165184 0 255 0
-0.935147 0.370947 0.16559 0 255 0
-0.934849 0.375922 0.165996 0 255 0
-0.934551 0.380896 0.166403 0 255 0
-0.934252 0.385871 0.166809 0 255 0
-0.933954 0.390845 0.167215 0 255 0
-0.933656 0.39582 0.167622 0 255 0
-0.933358 0.400794 0.168028 0 255 0
-0.93306 0.405769 0.168434 0 255 0
-0.932762 0.410743 0.168841 0 255 0
-0.932464 0.415718 0.169247 0 255 0
0.0879883 0.335371 -0.475573 0 255 0
0.0881137 0.340351 -0.475141 0 255 0
0.088239 0.34533 -0.474709 0 255 0
0.0883643 0.35031 -0.474276 0 255 0
0.0884897 0.35529 -0.473844 0 255 0
0.088615 0.36027 -0.473412 0 255 0
0.0887403 0.365249 -0.47298 0 255 0
0.0888657 0.370229 -0.472547 0 255 0
0.088991 0.375209 -0.472115 0 255 0
0.0891163 0.380188 -0.471683 0 255 0
0.0892417 0.385168 -0.471251 0 255 0
0.089367 0.390148 -0.470818 0 255 0
0.0894923 0.395127 -0.470386 0 255 0
0.0896177 0.400107 -0.469954 0 255 0
0.089743 0.405087 -0.469522 0 255 0
0.186882 0.331963 -0.481631 0 255 0
0.187183 0.336934 -0.481181 0 255 0
0.187484 0.341905 -0.480731 0 255 0
0.187785 0.346875 -0.480282 0 255 0
0.188086 0.351846 -0.479832 0 255 0
0.188386 0.356817 -0.479382 0 255 0
0.188687 0.361787 -0.478932 0 255 0
0.188988 0.366758 -0.478483 0 255 0
0.189289 0.371729 -0.478033 0 255 0
0.18959 0.376699 -0.477583 0 255 0
0.18989 0.38167 -0.477133 0 255 0
0.190191 0.386641 -0.476684 0 255 0
0.190492 0.391611 -0.476234 0 255 0
0.190793 0.396582 -0.475784 0 255 0
0.191093 0.401552 -0.475334 0 255 0
1.15527 0.23088 -0.0587515 0 255 0
1.15548 0.235869 -0.0584939 0 255 0
1.15568 0.240858 -0.0582363 0 255 0
1.15589 0.245847 -0.0579788 0 255 0
1.1561 0.250836 -0.0577212 0 255 0
1.15631 0.255825 -0.0574637 0 255 0
1.15652 0.260814 -0.0572061 0 255 0
1.15672 0.265803 -0.0569485 0 255 0
1.15693 0.270792 -0.056691 0 255 0
1.15714 0.275781 -0.0564334 0 255 0
1.15735 0.28077 -0.0561758 0 255 0
1.15756 0.285759 -0.0559183 0 255 0
1.15776 0.290748 -0.0556607 0 255 0
1.15797 0.295737 -0.0554032 0 255 0
1.15818 0.300727 -0.0551456 0 255 0
1.22926 0.22266 0.00430675 0 255 0
1.22942 0.227654 0.00450228 0 255 0
1.22958 0.232647 0.00469782 0 255 0
1.22974 0.237641 0.00489335 0 255 0
1.2299 0.242634 0.00508888 0 255 0
1.23006 0.247628 0.00528442 0 255 0
1.23022 0.252621 0.00547995 0 255 0
1.23039 0.257615 0.00567548 0 255 0
1.23055 0.262608 0.00587102 0 255 0
1.23071 0.267602 0.00606655 0 255 0
1.23087 0.272596 0.00626208 0 255 0
1.23103 0.277589 0.00645762 0 255 0
1.23119 0.282583 0.00665315 0 255 0
1.23135 0.287576 0.00684868 0 255 0
1.23152 0.29257 0.00704422 0 255 0
1.82113 0.133214 0.81774 0 255 0
1.82144 0.138197 0.818006 0 255 0
1.82175 0.143181 0.818273 0 255 0
1.82206 0.148164 0.818539 0 255 0
1.82237 0.153147 0.818805 0 255 0
1.82268 0.158131 0.819071 0 255 0
1.82299 0.163114 0.819338 0 255 0
1.8233 0.168097 0.819604 0 255 0
1.82361 0.17308 0.81987 0 255 0
1.82392 0.178064 0.820136 0 255 0
1.82423 0.183047 0.820403 0 255 0
1.82454 0.18803 0.820669 0 255 0
1.82485 0.193014 0.820935 0 255 0
1.82516 0.197997 0.821201 0 255 0
1.82547 0.20298 0.821468 0 255 0
1.83486 0.124718 0.916139 0 255 0
1.83517 0.129704 0.916334 0 255 0
1.83547 0.134691 0.916529 0 255 0
1.83578 0.139678 0.916723 0 255 0
1.83609 0.144664 0.916918 0 255 0
1.8364 0.149651 0.917113 0 255 0
1.8367 0.154638 0.917308 0 255 0
1.83701 0.159625 0.917502 0 255 0
1.83732 0.164611 0.917697 0 255 0
1.83763 0.169598 0.917892 0 255 0
1.83794 0.174585 0.918087 0 255 0
1.83824 0.179571 0.918281 0 255 0
1.83855 0.184558 0.918476 0 255 0
1.83886 0.189545 0.918671 0 255 0
1.83917 0.194532 0.918866 0 255 0
1.45937 0.0811611 2.07372 0 255 0
1.45963 0.0861472 2.07398 0 255 0
1.4599 0.0911333 2.07424 0 255 0
1.46017 0.0961193 2.0745 0 255 0
1.46044 0.101105 2.07476 0 255 0
1.4607 0.106091 2.07502 0 255 0
1.46097 0.111077 2.07528 0 255 0
1.46124 0.116064 2.07554 0 255 0
1.46151 0.12105 2.0758 0 255 0
1.46178 0.126036 2.07606 0 255 0
1.46204 0.131022 2.07632 0 255 0
1.46231 0.136008 2.07658 0 255 0
1.46258 0.140994 2.07684 0 255 0
1.46285 0.14598 2.0771 0 255 0
1.46311 0.150966 2.07736 0 255 0
1.39929 0.0776723 2.16506 0 255 0
1.3996 0.0826577 2.16529 0 255 0
1.3999 0.0876432 2.16552 0 255 0
1.40021 0.0926286 2.16574 0 255 0
1.40051 0.0976141 2.16597 0 255 0
1.40082 0.1026 2.1662 0 255 0
1.40113 0.107585 2.16642 0 255 0
1.40143 0.11257 2.16665 0 255 0
1.40174 0.117556 2.16688 0 255 0
1.40205 0.122541 2.1671 0 255 0
1.40235 0.127527 2.16733 0 255 0
1.40266 0.132512 2.16756 0 255 0
1.40297 0.137498 2.16778 0 255 0
1.40327 0.142483 2.16801 0 255 0
1.40358 0.147469 2.16824 0 255 0
1.49394 -0.406759 0.336287 0 255 0
1.49135 -0.406296 0.332036 0 255 0
1.48876 -0.405832 0.327785 0 255 0
1.48617 -0.405369 0.323533 0 255 0
1.48357 -0.404906 0.319282 0 255 0
1.48098 -0.404442 0.315031 0 255 0
1.47839 -0.403979 0.31078 0 255 0
1.4758 -0.403515 0.306529 0 255 0
1.47321 -0.403052 0.302278 0 255 0
1.47062 -0.402588 0.298027 0 255 0
1.46803 -0.402125 0.293776 0 255 0
1.46544 -0.401662 0.289525 0 255 0
1.46285 -0.401198 0.285273 0 255 0
1.46026 -0.400735 0.281022 0 255 0
1.45766 -0.400271 0.276771 0 255 0
1.50811 -0.294194 0.340896 0 255 0
1.50551 -0.293714 0.336656 0 255 0
1.5029 -0.293234 0.332416 0 255 0
1.5003 -0.292754 0.328175 0 255 0
1.49769 -0.292274 0.323935 0 255 0
1.49508 -0.291794 0.319694 0 255 0
1.49248 -0.291314 0.315454 0 255 0
1.48987 -0.290834 0.311213 0 255 0
1.48727 -0.290354 0.306973 0 255 0
1.48466 -0.289873 0.302732 0 255 0
1.48206 -0.289393 0.298492 0 255 0
1.47945 -0.288913 0.294252 0 255 0
1.47685 -0.288433 0.290011 0 255 0
1.47424 -0.287953 0.285771 0 255 0
1.47164 -0.287473 0.28153 0 255 0
-0.464694 -0.14251 -0.400705 0 255 0
-0.469137 -0.142412 -0.398413 0 255 0
-0.47358 -0.142314 -0.396121 0 255 0
-0.478022 -0.142216 -0.393829 0 255 0
-0.482465 -0.142117 -0.391537 0 255 0
-0.486907 -0.142019 -0.389245 0 255 0
-0.49135 -0.141921 -0.386953 0 255 0
-0.495793 -0.141823 -0.384661 0 255 0
-0.500235 -0.141724 -0.382369 0 255 0
-0.504678 -0.141626 -0.380076 0 255 0
-0.509121 -0.141528 -0.377784 0 255 0
-0.513563 -0.14143 -0.375492 0 255 0
-0.518006 -0.141332 -0.3732 0 255 0
-0.522448 -0.141233 -0.370908 0 255 0
-0.526891 -0.141135 -0.368616 0 255 0
-0.455618 -0.0387763 -0.389045 0 255 0
-0.460046 -0.038649 -0.386726 0 255 0
-0.464475 -0.0385216 -0.384407 0 255 0
-0.468903 -0.0383942 -0.382089 0 255 0
-0.473331 -0.0382669 -0.37977 0 255 0
-0.477759 -0.0381395 -0.377452 0 255 0
-0.482187 -0.0380122 -0.375133 0 255 0
-0.486615 -0.0378848 -0.372814 0 255 0
-0.491043 -0.0377574 -0.370496 0 255 0
-0.495471 -0.0376301 -0.368177 0 255 0
-0.499899 -0.0375027 -0.365858 0 255 0
-0.504327 -0.0373754 -0.36354 0 255 0
-0.508755 -0.037248 -0.361221 0 255 0
-0.513183 -0.0371206 -0.358903 0 255 0
-0.517611 -0.0369933 -0.356584 0 255 0
-1.33856 -0.193401 0.769796 0 255 0
-1.33923 -0.193679 0.774743 0 255 0
-1.33991 -0.193956 0.779689 0 255 0
-1.34059 -0.194233 0.784635 0 255 0
-1.34126 -0.19451 0.789582 0 255 0
-1.34194 -0.194787 0.794528 0 255 0
-1.34261 -0.195064 0.799474 0 255 0
-1.34329 -0.195342 0.804421 0 255 0
-1.34396 -0.195619 0.809367 0 255 0
-1.34464 -0.195896 0.814313 0 255 0
-1.34532 -0.196173 0.81926 0 255 0
-1.34599 -0.19645 0.824206 0 255 0
-1.34667 -0.196728 0.829152 0 255 0
-1.34734 -0.197005 0.834099 0 255 0
-1.34802 -0.197282 0.839045 0 255 0
-1.33635 -0.0842026 0.775993 0 255 0
