ply
format ascii 1.0
element vertex 1328
property float x
property float y
property float z
property uchar red
property uchar green
property uchar blue
end_header
0.195959 -0.0432365 0.0404239 255 0 0
0.195923 -0.0382729 0.0410243 255 0 0
0.195887 -0.0333092 0.0416247 255 0 0
0.195851 -0.0283455 0.0422251 255 0 0
0.195815 -0.0233818 0.0428255 255 0 0
0.195779 -0.0184181 0.043426 255 0 0
0.195743 -0.0134544 0.0440264 255 0 0
0.195707 -0.00849073 0.0446268 255 0 0
0.948335 -0.189092 1.32802 255 0 0
0.94845 -0.184107 1.32839 255 0 0
0.948566 -0.179122 1.32876 255 0 0
0.948681 -0.174137 1.32913 255 0 0
0.948796 -0.169152 1.3295 255 0 0
0.948911 -0.164167 1.32987 255 0 0
0.949026 -0.159182 1.33024 255 0 0
0.949142 -0.154197 1.3306 255 0 0
0.949257 -0.149212 1.33097 255 0 0
0.949372 -0.144227 1.33134 255 0 0
0.951272 -0.1193 1.33359 255 0 0
0.951381 -0.114315 1.33396 255 0 0
0.951491 -0.10933 1.33433 255 0 0
0.9516 -0.104344 1.33469 255 0 0
0.95171 -0.0993588 1.33506 255 0 0
0.951819 -0.0943734 1.33542 255 0 0
0.951929 -0.089388 1.33579 255 0 0
0.952039 -0.0844026 1.33615 255 0 0
0.952148 -0.0794172 1.33652 255 0 0
0.952258 -0.0744318 1.33689 255 0 0
0.349374 -0.212359 2.05068 255 0 0
0.349727 -0.207592 2.05215 255 0 0
0.35008 -0.202826 2.05362 255 0 0
0.350434 -0.198059 2.05509 255 0 0
0.350787 -0.193293 2.05656 255 0 0
0.351141 -0.188526 2.05803 255 0 0
0.351494 -0.18376 2.05949 255 0 0
0.351847 -0.178993 2.06096 255 0 0
0.352201 -0.174227 2.06243 255 0 0
0.352554 -0.169461 2.0639 255 0 0
0.351137 -0.1417 2.05849 255 0 0
0.351484 -0.136924 2.05993 255 0 0
0.35183 -0.132148 2.06137 255 0 0
0.352176 -0.127371 2.0628 255 0 0
0.352522 -0.122595 2.06424 255 0 0
0.352869 -0.117819 2.06568 255 0 0
0.353215 -0.113043 2.06712 255 0 0
0.353561 -0.108266 2.06855 255 0 0
0.353907 -0.10349 2.06999 255 0 0
0.354254 -0.0987139 2.07143 255 0 0
-0.072929 -0.209653 -0.0360919 0 255 0
-0.0728271 -0.204656 -0.0359542 0 255 0
-0.0727251 -0.199659 -0.0358164 0 255 0
-0.0726232 -0.194662 -0.0356787 0 255 0
-0.0725212 -0.189664 -0.0355409 0 255 0
-0.0724193 -0.184667 -0.0354032 0 255 0
-0.0723173 -0.17967 -0.0352654 0 255 0
-0.0722153 -0.174673 -0.0351277 0 255 0
-0.0721134 -0.169676 -0.0349899 0 255 0
-0.0720114 -0.164679 -0.0348522 0 255 0
-0.0719095 -0.159682 -0.0347144 0 255 0
-0.0718075 -0.154685 -0.0345767 0 255 0
-0.0717056 -0.149688 -0.0344389 0 255 0
-0.0716036 -0.144691 -0.0343012 0 255 0
-0.0715017 -0.139694 -0.0341634 0 255 0
-0.0186802 -0.210687 -0.0387611 0 255 0
-0.0185785 -0.20569 -0.0386444 0 255 0
-0.0184768 -0.200692 -0.0385277 0 255 0
-0.0183751 -0.195694 -0.038411 0 255 0
-0.0182734 -0.190697 -0.0382944 0 255 0
-0.0181718 -0.185699 -0.0381777 0 255 0
-0.0180701 -0.180702 -0.038061 0 255 0
-0.0179684 -0.175704 -0.0379443 0 255 0
-0.0178667 -0.170706 -0.0378276 0 255 0
-0.017765 -0.165709 -0.0377109 0 255 0
-0.0176633 -0.160711 -0.0375942 0 255 0
-0.0175617 -0.155714 -0.0374775 0 255 0
-0.01746 -0.150716 -0.0373608 0 255 0
-0.0173583 -0.145718 -0.0372441 0 255 0
-0.0172566 -0.140721 -0.0371274 0 255 0
0.523924 -0.208782 0.218152 0 255 0
0.524092 -0.203785 0.218191 0 255 0
0.524261 -0.198788 0.218229 0 255 0
0.524429 -0.193791 0.218268 0 255 0
0.524597 -0.188794 0.218306 0 255 0
0.524766 -0.183797 0.218345 0 255 0
0.524934 -0.1788 0.218384 0 255 0
0.525103 -0.173803 0.218422 0 255 0
0.525271 -0.168806 0.218461 0 255 0
0.52544 -0.163809 0.218499 0 255 0
0.525608 -0.158812 0.218538 0 255 0
0.525776 -0.153815 0.218577 0 255 0
0.525945 -0.148818 0.218615 0 255 0
0.526113 -0.143821 0.218654 0 255 0
0.526282 -0.138824 0.218692 0 255 0
0.574971 -0.210802 0.25293 0 255 0
0.575143 -0.205805 0.252966 0 255 0
0.575314 -0.200808 0.253001 0 255 0
0.575486 -0.195811 0.253037 0 255 0
0.575657 -0.190814 0.253073 0 255 0
0.575828 -0.185817 0.253109 0 255 0
0.576 -0.18082 0.253145 0 255 0
0.576171 -0.175823 0.253181 0 255 0
0.576343 -0.170826 0.253217 0 255 0
0.576514 -0.165829 0.253253 0 255 0
0.576686 -0.160832 0.253288 0 255 0
0.576857 -0.155836 0.253324 0 255 0
0.577028 -0.150839 0.25336 0 255 0
0.5772 -0.145842 0.253396 0 255 0
0.577371 -0.140845 0.253432 0 255 0
0.944606 -0.262072 0.769207 0 255 0
0.944905 -0.257091 0.769515 0 255 0
0.945204 -0.252109 0.769823 0 255 0
0.945503 -0.247128 0.77013 0 255 0
0.945802 -0.242146 0.770438 0 255 0
0.946101 -0.237165 0.770745 0 255 0
0.9464 -0.232183 0.771053 0 255 0
0.946698 -0.227201 0.77136 0 255 0
0.946997 -0.22222 0.771668 0 255 0
0.947296 -0.217238 0.771976 0 255 0
0.947595 -0.212257 0.772283 0 255 0
0.947894 -0.207275 0.772591 0 255 0
0.948193 -0.202293 0.772898 0 255 0
0.948491 -0.197312 0.773206 0 255 0
0.94879 -0.19233 0.773513 0 255 0
0.961002 -0.266662 0.828012 0 255 0
0.961303 -0.26168 0.828319 0 255 0
0.961604 -0.256699 0.828627 0 255 0
0.961905 -0.251717 0.828934 0 255 0
0.962207 -0.246736 0.829242 0 255 0
0.962508 -0.241754 0.829549 0 255 0
0.962809 -0.236773 0.829856 0 255 0
0.96311 -0.231792 0.830164 0 255 0
0.963411 -0.22681 0.830471 0 255 0
0.963712 -0.221829 0.830779 0 255 0
0.964014 -0.216847 0.831086 0 255 0
0.964315 -0.211866 0.831394 0 255 0
0.964616 -0.206884 0.831701 0 255 0
0.964917 -0.201903 0.832009 0 255 0
0.965218 -0.196921 0.832316 0 255 0
0.774659 -0.315704 1.61106 0 255 0
0.774961 -0.31073 1.61146 0 255 0
0.775262 -0.305755 1.61187 0 255 0
0.775563 -0.30078 1.61227 0 255 0
0.775864 -0.295806 1.61268 0 255 0
0.776166 -0.290831 1.61308 0 255 0
0.776467 -0.285857 1.61348 0 255 0
0.776768 -0.280882 1.61389 0 255 0
0.777069 -0.275908 1.61429 0 255 0
0.777371 -0.270933 1.61469 0 255 0
0.777672 -0.265958 1.6151 0 255 0
0.777973 -0.260984 1.6155 0 255 0
0.778274 -0.256009 1.6159 0 255 0
0.778576 -0.251035 1.61631 0 255 0
0.778877 -0.24606 1.61671 0 255 0
0.737442 -0.317425 1.6583 0 255 0
0.737745 -0.312451 1.65871 0 255 0
0.738047 -0.307476 1.65911 0 255 0
0.73835 -0.302502 1.65951 0 255 0
0.738652 -0.297527 1.65992 0 255 0
0.738955 -0.292552 1.66032 0 255 0
0.739257 -0.287578 1.66072 0 255 0
0.73956 -0.282603 1.66112 0 255 0
0.739862 -0.277629 1.66153 0 255 0
0.740165 -0.272654 1.66193 0 255 0
0.740467 -0.26768 1.66233 0 255 0
0.74077 -0.262705 1.66273 0 255 0
0.741072 -0.25773 1.66314 0 255 0
0.741375 -0.252756 1.66354 0 255 0
0.741678 -0.247781 1.66394 0 255 0
0.0950192 -0.331895 2.08119 0 255 0
0.0950442 -0.326911 2.08159 0 255 0
0.0950693 -0.321927 2.08198 0 255 0
0.0950943 -0.316942 2.08238 0 255 0
0.0951193 -0.311958 2.08278 0 255 0
0.0951444 -0.306974 2.08317 0 255 0
0.0951694 -0.30199 2.08357 0 255 0
0.0951944 -0.297006 2.08397 0 255 0
0.0952195 -0.292021 2.08436 0 255 0
0.0952445 -0.287037 2.08476 0 255 0
0.0952695 -0.282053 2.08516 0 255 0
0.0952946 -0.277069 2.08555 0 255 0
0.0953196 -0.272085 2.08595 0 255 0
0.0953446 -0.2671 2.08634 0 255 0
0.0953697 -0.262116 2.08674 0 255 0
0.0318867 -0.332061 2.08541 0 255 0
0.0319125 -0.327077 2.08581 0 255 0
0.0319384 -0.322092 2.0862 0 255 0
0.0319642 -0.317108 2.0866 0 255 0
0.03199 -0.312124 2.087 0 255 0
0.0320158 -0.30714 2.08739 0 255 0
0.0320416 -0.302156 2.08779 0 255 0
0.0320674 -0.297172 2.08819 0 255 0
0.0320932 -0.292187 2.08859 0 255 0
0.032119 -0.287203 2.08898 0 255 0
0.0321448 -0.282219 2.08938 0 255 0
0.0321706 -0.277235 2.08978 0 255 0
0.0321964 -0.272251 2.09017 0 255 0
0.0322222 -0.267267 2.09057 0 255 0
0.032248 -0.262282 2.09097 0 255 0
-0.595612 -0.320796 1.84909 0 255 0
-0.595879 -0.315818 1.84947 0 255 0
-0.596145 -0.310839 1.84984 0 255 0
-0.596412 -0.30586 1.85022 0 255 0
-0.596679 -0.300882 1.8506 0 255 0
-0.596946 -0.295903 1.85097 0 255 0
-0.597213 -0.290925 1.85135 0 255 0
-0.59748 -0.285946 1.85173 0 255 0
-0.597747 -0.280967 1.8521 0 255 0
-0.598014 -0.275989 1.85248 0 255 0
-0.598281 -0.27101 1.85286 0 255 0
-0.598548 -0.266031 1.85323 0 255 0
-0.598815 -0.261053 1.85361 0 255 0
-0.599082 -0.256074 1.85399 0 255 0
-0.599348 -0.251095 1.85436 0 255 0
-0.643067 -0.320279 1.80895 0 255 0
-0.643329 -0.315299 1.80932 0 255 0
-0.643592 -0.31032 1.80969 0 255 0
-0.643854 -0.305341 1.81006 0 255 0
-0.644116 -0.300361 1.81043 0 255 0
-0.644379 -0.295382 1.81081 0 255 0
-0.644641 -0.290403 1.81118 0 255 0
-0.644903 -0.285424 1.81155 0 255 0
-0.645166 -0.280444 1.81192 0 255 0
-0.645428 -0.275465 1.81229 0 255 0
-0.64569 -0.270486 1.81266 0 255 0
-0.645953 -0.265506 1.81303 0 255 0
-0.646215 -0.260527 1.8134 0 255 0
-0.646477 -0.255548 1.81378 0 255 0
-0.64674 -0.250568 1.81415 0 255 0
-1.04099 -0.293827 1.27697 0 255 0
-1.04122 -0.288848 1.27737 0 255 0
-1.04145 -0.283869 1.27776 0 255 0
-1.04168 -0.27889 1.27816 0 255 0
-1.04192 -0.273911 1.27856 0 255 0
-1.04215 -0.268932 1.27896 0 255 0
-1.04238 -0.263954 1.27935 0 255 0
-1.04261 -0.258975 1.27975 0 255 0
-1.04284 -0.253996 1.28015 0 255 0
-1.04307 -0.249017 1.28054 0 255 0
-1.04331 -0.244038 1.28094 0 255 0
-1.04354 -0.239059 1.28134 0 255 0
-1.04377 -0.234081 1.28173 0 255 0
-1.044 -0.229102 1.28213 0 255 0
-1.04423 -0.224123 1.28253 0 255 0
-1.0532 -0.290142 1.22027 0 255 0
-1.05343 -0.285163 1.22067 0 255 0
-1.05366 -0.280184 1.22106 0 255 0
-1.05388 -0.275205 1.22146 0 255 0
-1.05411 -0.270225 1.22185 0 255 0
-1.05434 -0.265246 1.22225 0 255 0
-1.05456 -0.260267 1.22264 0 255 0
-1.05479 -0.255288 1.22304 0 255 0
-1.05502 -0.250309 1.22343 0 255 0
-1.05524 -0.245329 1.22383 0 255 0
-1.05547 -0.24035 1.22422 0 255 0
-1.0557 -0.235371 1.22462 0 255 0
-1.05592 -0.230392 1.22501 0 255 0
-1.05615 -0.225413 1.22541 0 255 0
-1.05638 -0.220433 1.2258 0 255 0
-0.830695 -0.239561 0.457557 0 255 0
-0.83091 -0.234569 0.457739 0 255 0
-0.831126 -0.229577 0.457921 0 255 0
-0.831341 -0.224585 0.458104 0 255 0
-0.831556 -0.219593 0.458286 0 255 0
-0.831771 -0.2146 0.458468 0 255 0
-0.831986 -0.209608 0.458651 0 255 0
-0.832202 -0.204616 0.458833 0 255 0
-0.832417 -0.199624 0.459015 0 255 0
-0.832632 -0.194632 0.459198 0 255 0
-0.832847 -0.18964 0.45938 0 255 0
-0.833063 -0.184648 0.459562 0 255 0
-0.833278 -0.179656 0.459745 0 255 0
-0.833493 -0.174664 0.459927 0 255 0
-0.833708 -0.169672 0.460109 0 255 0
-0.791243 -0.235947 0.404017 0 255 0
-0.791458 -0.230955 0.4042 0 255 0
-0.791672 -0.225963 0.404383 0 255 0
-0.791886 -0.220971 0.404566 0 255 0
-0.792101 -0.215978 0.404749 0 255 0
-0.792315 -0.210986 0.404932 0 255 0
-0.792529 -0.205994 0.405115 0 255 0
-0.792744 -0.201002 0.405298 0 255 0
-0.792958 -0.19601 0.405481 0 255 0
-0.793172 -0.191018 0.405663 0 255 0
-0.793386 -0.186026 0.405846 0 255 0
-0.793601 -0.181034 0.406029 0 255 0
-0.793815 -0.176042 0.406212 0 255 0
-0.794029 -0.17105 0.406395 0 255 0
-0.794244 -0.166058 0.406578 0 255 0
-0.0697535 0.00288481 -0.0119928 0 255 0
-0.0697294 0.00788471 -0.0119739 0 255 0
-0.0697054 0.0128846 -0.0119551 0 255 0
-0.0696814 0.0178845 -0.0119363 0 255 0
-0.0696574 0.0228844 -0.0119174 0 255 0
-0.0696334 0.0278843 -0.0118986 0 255 0
-0.0696094 0.0328842 -0.0118798 0 255 0
-0.0695854 0.0378842 -0.0118609 0 255 0
-0.0695614 0.0428841 -0.0118421 0 255 0
-0.0695374 0.047884 -0.0118232 0 255 0
-0.0695133 0.0528839 -0.0118044 0 255 0
-0.0694893 0.0578838 -0.0117856 0 255 0
-0.0694653 0.0628837 -0.0117667 0 255 0
-0.0694413 0.0678836 -0.0117479 0 255 0
-0.0694173 0.0728835 -0.0117291 0 255 0
-0.0057776 0.00228119 -0.013721 0 255 0
-0.00575393 0.0072811 -0.0137012 0 255 0
-0.00573026 0.012281 -0.0136814 0 255 0
-0.00570658 0.0172809 -0.0136616 0 255 0
-0.00568291 0.0222808 -0.0136418 0 255 0
-0.00565924 0.0272807 -0.013622 0 255 0
-0.00563556 0.0322806 -0.0136022 0 255 0
-0.00561189 0.0372805 -0.0135824 0 255 0
-0.00558822 0.0422804 -0.0135626 0 255 0
-0.00556454 0.0472803 -0.0135428 0 255 0
-0.00554087 0.0522802 -0.013523 0 255 0
-0.0055172 0.0572801 -0.0135032 0 255 0
-0.00549352 0.0622801 -0.0134834 0 255 0
-0.00546985 0.06728 -0.0134636 0 255 0
-0.00544618 0.0722799 -0.0134438 0 255 0
0.542941 -0.00669291 0.240772 0 255 0
0.543008 -0.00169486 0.240894 0 255 0
0.543076 0.00330319 0.241016 0 255 0
0.543144 0.00830124 0.241138 0 255 0
0.543212 0.0132993 0.24126 0 255 0
0.543279 0.0182973 0.241382 0 255 0
0.543347 0.0232954 0.241504 0 255 0
0.543415 0.0282934 0.241627 0 255 0
0.543483 0.0332915 0.241749 0 255 0
0.54355 0.0382896 0.241871 0 255 0
0.543618 0.0432876 0.241993 0 255 0
0.543686 0.0482857 0.242115 0 255 0
0.543754 0.0532837 0.242237 0 255 0
0.543822 0.0582818 0.242359 0 255 0
0.543889 0.0632798 0.242481 0 255 0
0.592967 -0.00817488 0.282081 0 255 0
0.593032 -0.0031769 0.282208 0 255 0
0.593096 0.00182108 0.282335 0 255 0
0.593161 0.00681906 0.282461 0 255 0
0.593225 0.011817 0.282588 0 255 0
0.59329 0.016815 0.282714 0 255 0
0.593354 0.021813 0.282841 0 255 0
0.593418 0.026811 0.282968 0 255 0
0.593483 0.031809 0.283094 0 255 0
0.593547 0.0368069 0.283221 0 255 0
0.593612 0.0418049 0.283348 0 255 0
0.593676 0.0468029 0.283474 0 255 0
0.593741 0.0518009 0.283601 0 255 0
0.593805 0.0567989 0.283728 0 255 0
0.593869 0.0617968 0.283854 0 255 0
0.955002 -0.049482 0.77924 0 255 0
0.955125 -0.044488 0.779451 0 255 0
0.955247 -0.0394939 0.779662 0 255 0
0.95537 -0.0344999 0.779873 0 255 0
0.955492 -0.0295059 0.780084 0 255 0
0.955615 -0.0245118 0.780295 0 255 0
0.955737 -0.0195178 0.780506 0 255 0
0.95586 -0.0145237 0.780717 0 255 0
0.955982 -0.00952968 0.780928 0 255 0
0.956105 -0.00453564 0.781139 0 255 0
0.956227 0.000458407 0.78135 0 255 0
0.95635 0.00545245 0.781561 0 255 0
0.956472 0.0104465 0.781772 0 255 0
0.956595 0.0154405 0.781983 0 255 0
0.956717 0.0204346 0.782194 0 255 0
0.971579 -0.0525226 0.838006 0 255 0
0.9717 -0.0475285 0.838217 0 255 0
0.971822 -0.0425345 0.838428 0 255 0
0.971944 -0.0375404 0.83864 0 255 0
0.972065 -0.0325464 0.838851 0 255 0
0.972187 -0.0275523 0.839062 0 255 0
0.972308 -0.0225583 0.839273 0 255 0
0.97243 -0.0175642 0.839484 0 255 0
0.972552 -0.0125702 0.839696 0 255 0
0.972673 -0.0075761 0.839907 0 255 0
0.972795 -0.00258204 0.840118 0 255 0
0.972916 0.00241202 0.840329 0 255 0
0.973038 0.00740607 0.840541 0 255 0
0.97316 0.0124001 0.840752 0 255 0
0.973281 0.0173942 0.840963 0 255 0
0.776176 -0.101079 1.62417 0 255 0
0.776097 -0.0961098 1.62472 0 255 0
0.776019 -0.0911408 1.62527 0 255 0
0.77594 -0.0861717 1.62582 0 255 0
0.775862 -0.0812027 1.62637 0 255 0
0.775783 -0.0762336 1.62692 0 255 0
0.775705 -0.0712646 1.62747 0 255 0
0.775626 -0.0662955 1.62802 0 255 0
0.775548 -0.0613264 1.62857 0 255 0
0.775469 -0.0563574 1.62912 0 255 0
0.77539 -0.0513883 1.62967 0 255 0
0.775312 -0.0464193 1.63022 0 255 0
0.775233 -0.0414502 1.63077 0 255 0
0.775155 -0.0364811 1.63132 0 255 0
0.775076 -0.0315121 1.63187 0 255 0
0.735465 -0.107004 1.67127 0 255 0
0.735389 -0.102035 1.67182 0 255 0
0.735313 -0.0970659 1.67237 0 255 0
0.735236 -0.092097 1.67292 0 255 0
0.73516 -0.0871281 1.67347 0 255 0
0.735083 -0.0821591 1.67402 0 255 0
0.735007 -0.0771902 1.67458 0 255 0
0.73493 -0.0722213 1.67513 0 255 0
0.734854 -0.0672524 1.67568 0 255 0
0.734778 -0.0622835 1.67623 0 255 0
0.734701 -0.0573146 1.67678 0 255 0
0.734625 -0.0523456 1.67733 0 255 0
0.734548 -0.0473767 1.67788 0 255 0
0.734472 -0.0424078 1.67843 0 255 0
0.734396 -0.0374389 1.67899 0 255 0
0.0936157 -0.118155 2.10107 0 255 0
0.0936616 -0.113192 2.10168 0 255 0
0.0937075 -0.108228 2.10228 0 255 0
0.0937533 -0.103265 2.10288 0 255 0
0.0937992 -0.0983019 2.10349 0 255 0
0.0938451 -0.0933387 2.10409 0 255 0
0.093891 -0.0883754 2.10469 0 255 0
0.0939369 -0.0834122 2.1053 0 255 0
0.0939827 -0.078449 2.1059 0 255 0
0.0940286 -0.0734857 2.1065 0 255 0
0.0940745 -0.0685225 2.10711 0 255 0
0.0941204 -0.0635593 2.10771 0 255 0
0.0941662 -0.0585961 2.10832 0 255 0
0.0942121 -0.0536328 2.10892 0 255 0
0.094258 -0.0486696 2.10952 0 255 0
0.0303434 -0.117352 2.10429 0 255 0
0.0303895 -0.112389 2.10489 0 255 0
0.0304355 -0.107426 2.1055 0 255 0
0.0304816 -0.102463 2.1061 0 255 0
0.0305277 -0.0974997 2.1067 0 255 0
0.0305738 -0.0925366 2.10731 0 255 0
0.0306198 -0.0875734 2.10791 0 255 0
0.0306659 -0.0826103 2.10852 0 255 0
0.030712 -0.0776472 2.10912 0 255 0
0.0307581 -0.072684 2.10973 0 255 0
0.0308041 -0.0677209 2.11033 0 255 0
0.0308502 -0.0627577 2.11093 0 255 0
0.0308963 -0.0577946 2.11154 0 255 0
0.0309423 -0.0528315 2.11214 0 255 0
0.0309884 -0.0478683 2.11275 0 255 0
-0.599285 -0.109558 1.85543 0 255 0
-0.599516 -0.10459 1.85594 0 255 0
-0.599746 -0.0996218 1.85646 0 255 0
-0.599977 -0.0946536 1.85697 0 255 0
-0.600207 -0.0896854 1.85748 0 255 0
-0.600438 -0.0847172 1.858 0 255 0
-0.600668 -0.079749 1.85851 0 255 0
-0.600899 -0.0747807 1.85903 0 255 0
-0.601129 -0.0698125 1.85954 0 255 0
-0.601359 -0.0648443 1.86005 0 255 0
-0.60159 -0.0598761 1.86057 0 255 0
-0.60182 -0.0549078 1.86108 0 255 0
-0.602051 -0.0499396 1.86159 0 255 0
-0.602281 -0.0449714 1.86211 0 255 0
-0.602512 -0.0400032 1.86262 0 255 0
-0.650211 -0.10719 1.8109 0 255 0
-0.650441 -0.102221 1.81141 0 255 0
-0.65067 -0.0972529 1.81192 0 255 0
-0.6509 -0.0922845 1.81243 0 255 0
-0.651129 -0.087316 1.81295 0 255 0
-0.651359 -0.0823476 1.81346 0 255 0
-0.651589 -0.0773792 1.81397 0 255 0
-0.651818 -0.0724108 1.81448 0 255 0
-0.652048 -0.0674423 1.81499 0 255 0
-0.652277 -0.0624739 1.81551 0 255 0
-0.652507 -0.0575055 1.81602 0 255 0
-0.652737 -0.0525371 1.81653 0 255 0
-0.652966 -0.0475686 1.81704 0 255 0
-0.653196 -0.0426002 1.81755 0 255 0
-0.653425 -0.0376318 1.81807 0 255 0
-1.04496 -0.0758884 1.29586 0 255 0
-1.04526 -0.0709146 1.29628 0 255 0
-1.04556 -0.0659409 1.29669 0 255 0
-1.04586 -0.0609671 1.2971 0 255 0
-1.04616 -0.0559934 1.29752 0 255 0
-1.04647 -0.0510196 1.29793 0 255 0
-1.04677 -0.0460459 1.29834 0 255 0
-1.04707 -0.0410721 1.29875 0 255 0
-1.04737 -0.0360984 1.29917 0 255 0
-1.04767 -0.0311246 1.29958 0 255 0
-1.04798 -0.0261509 1.29999 0 255 0
-1.04828 -0.0211771 1.30041 0 255 0
-1.04858 -0.0162034 1.30082 0 255 0
-1.04888 -0.0112296 1.30123 0 255 0
-1.04918 -0.0062559 1.30165 0 255 0
-1.05663 -0.0715278 1.2352 0 255 0
-1.05694 -0.0665546 1.23561 0 255 0
-1.05725 -0.0615813 1.23603 0 255 0
-1.05756 -0.0566081 1.23644 0 255 0
-1.05786 -0.0516349 1.23686 0 255 0
-1.05817 -0.0466616 1.23727 0 255 0
-1.05848 -0.0416884 1.23768 0 255 0
-1.05879 -0.0367152 1.2381 0 255 0
-1.0591 -0.031742 1.23851 0 255 0
-1.05941 -0.0267687 1.23893 0 255 0
-1.05972 -0.0217955 1.23934 0 255 0
-1.06003 -0.0168223 1.23975 0 255 0
-1.06034 -0.0118491 1.24017 0 255 0
-1.06065 -0.00687583 1.24058 0 255 0
-1.06096 -0.0019026 1.241 0 255 0
-0.830916 -0.0192944 0.45818 0 255 0
-0.831053 -0.0142998 0.458367 0 255 0
-0.831191 -0.00930518 0.458554 0 255 0
-0.831329 -0.00431058 0.458741 0 255 0
-0.831467 0.000684018 0.458928 0 255 0
-0.831605 0.00567862 0.459115 0 255 0
-0.831743 0.0106732 0.459302 0 255 0
-0.831881 0.0156678 0.459489 0 255 0
-0.832019 0.0206624 0.459676 0 255 0
-0.832156 0.025657 0.459863 0 255 0
-0.832294 0.0306516 0.46005 0 255 0
-0.832432 0.0356462 0.460237 0 255 0
-0.83257 0.0406408 0.460424 0 255 0
-0.832708 0.0456354 0.460611 0 255 0
-0.832846 0.05063 0.460798 0 255 0
-0.794584 -0.0163498 0.40949 0 255 0
-0.794717 -0.0113552 0.40968 0 255 0
-0.79485 -0.00636056 0.40987 0 255 0
-0.794983 -0.00136594 0.41006 0 255 0
-0.795116 0.00362869 0.41025 0 255 0
-0.795249 0.00862331 0.41044 0 255 0
-0.795381 0.0136179 0.41063 0 255 0
-0.795514 0.0186126 0.41082 0 255 0
-0.795647 0.0236072 0.41101 0 255 0
-0.79578 0.0286018 0.4112 0 255 0
-0.795913 0.0335964 0.41139 0 255 0
-0.796046 0.038591 0.41158 0 255 0
-0.796178 0.0435857 0.41177 0 255 0
-0.796311 0.0485803 0.41196 0 255 0
-0.796444 0.0535749 0.41215 0 255 0
-0.0763018 0.23473 0.000489906 0 255 0
-0.0762232 0.239716 0.000861159 0 255 0
-0.0761447 0.244701 0.00123241 0 255 0
-0.0760662 0.249687 0.00160366 0 255 0
-0.0759877 0.254673 0.00197492 0 255 0
-0.0759092 0.259658 0.00234617 0 255 0
-0.0758307 0.264644 0.00271742 0 255 0
-0.0757522 0.269629 0.00308867 0 255 0
-0.0756736 0.274615 0.00345993 0 255 0
-0.0755951 0.279601 0.00383118 0 255 0
-0.0755166 0.284586 0.00420243 0 255 0
-0.0754381 0.289572 0.00457368 0 255 0
-0.0753596 0.294557 0.00494493 0 255 0
-0.0752811 0.299543 0.00531619 0 255 0
-0.0752026 0.304528 0.00568744 0 255 0
-0.0119023 0.233006 -0.0018163 0 255 0
-0.0118271 0.237991 -0.00143548 0 255 0
-0.0117519 0.242976 -0.00105467 0 255 0
-0.0116767 0.247961 -0.000673858 0 255 0
-0.0116015 0.252946 -0.000293045 0 255 0
-0.0115263 0.257931 8.77674e-05 0 255 0
-0.0114511 0.262916 0.00046858 0 255 0
-0.0113759 0.267901 0.000849393 0 255 0
-0.0113007 0.272886 0.00123021 0 255 0
-0.0112255 0.277871 0.00161102 0 255 0
-0.0111503 0.282856 0.00199183 0 255 0
-0.011075 0.28784 0.00237264 0 255 0
-0.0109998 0.292825 0.00275346 0 255 0
-0.0109246 0.29781 0.00313427 0 255 0
-0.0108494 0.302795 0.00351508 0 255 0
0.54782 0.224026 0.254934 0 255 0
0.547639 0.229006 0.255343 0 255 0
0.547458 0.233986 0.255752 0 255 0
0.547276 0.238966 0.25616 0 255 0
0.547095 0.243946 0.256569 0 255 0
0.546914 0.248926 0.256978 0 255 0
0.546733 0.253906 0.257387 0 255 0
0.546552 0.258886 0.257796 0 255 0
0.546371 0.263866 0.258204 0 255 0
0.54619 0.268846 0.258613 0 255 0
0.546008 0.273826 0.259022 0 255 0
0.545827 0.278806 0.259431 0 255 0
0.545646 0.283786 0.25984 0 255 0
0.545465 0.288766 0.260248 0 255 0
0.545284 0.293746 0.260657 0 255 0
0.598247 0.221619 0.295845 0 255 0
0.598066 0.226599 0.296251 0 255 0
0.597886 0.231579 0.296657 0 255 0
0.597705 0.236559 0.297063 0 255 0
0.597525 0.24154 0.297469 0 255 0
0.597344 0.24652 0.297875 0 255 0
0.597164 0.2515 0.298281 0 255 0
0.596983 0.25648 0.298688 0 255 0
0.596803 0.26146 0.299094 0 255 0
0.596622 0.266441 0.2995 0 255 0
0.596442 0.271421 0.299906 0 255 0
0.596261 0.276401 0.300312 0 255 0
0.596081 0.281381 0.300718 0 255 0
0.5959 0.286361 0.301125 0 255 0
0.59572 0.291342 0.301531 0 255 0
0.951645 0.183245 0.788935 0 255 0
0.951668 0.188235 0.789262 0 255 0
0.95169 0.193224 0.78959 0 255 0
0.951713 0.198213 0.789917 0 255 0
0.951735 0.203202 0.790244 0 255 0
0.951758 0.208191 0.790571 0 255 0
0.95178 0.213181 0.790898 0 255 0
0.951803 0.21817 0.791225 0 255 0
0.951826 0.223159 0.791553 0 255 0
0.951848 0.228148 0.79188 0 255 0
0.951871 0.233138 0.792207 0 255 0
0.951893 0.238127 0.792534 0 255 0
0.951916 0.243116 0.792861 0 255 0
0.951938 0.248105 0.793188 0 255 0
0.951961 0.253095 0.793515 0 255 0
0.968089 0.179172 0.849681 0 255 0
0.9681 0.184162 0.850009 0 255 0
0.968112 0.189151 0.850338 0 255 0
0.968122 0.19414 0.850666 0 255 0
0.968134 0.199129 0.850995 0 255 0
0.968145 0.204118 0.851323 0 255 0
0.968156 0.209108 0.851652 0 255 0
0.968167 0.214097 0.85198 0 255 0
0.968178 0.219086 0.852309 0 255 0
0.968189 0.224075 0.852637 0 255 0
0.9682 0.229064 0.852965 0 255 0
0.968211 0.234053 0.853294 0 255 0
0.968222 0.239043 0.853622 0 255 0
0.968233 0.244032 0.853951 0 255 0
0.968244 0.249021 0.854279 0 255 0
0.778406 0.132114 1.64254 0 255 0
0.77834 0.137099 1.64293 0 255 0
0.778273 0.142083 1.64331 0 255 0
0.778207 0.147068 1.6437 0 255 0
0.77814 0.152052 1.64409 0 255 0
0.778074 0.157037 1.64447 0 255 0
0.778007 0.162022 1.64486 0 255 0
0.777941 0.167006 1.64524 0 255 0
0.777874 0.171991 1.64563 0 255 0
0.777808 0.176976 1.64602 0 255 0
0.777741 0.18196 1.6464 0 255 0
0.777675 0.186945 1.64679 0 255 0
0.777609 0.19193 1.64717 0 255 0
0.777542 0.196914 1.64756 0 255 0
0.777476 0.201899 1.64795 0 255 0
0.74185 0.128271 1.69003 0 255 0
0.741792 0.133255 1.69042 0 255 0
0.741734 0.138239 1.69081 0 255 0
0.741675 0.143223 1.6912 0 255 0
0.741617 0.148208 1.69159 0 255 0
0.741559 0.153192 1.69199 0 255 0
0.741501 0.158176 1.69238 0 255 0
0.741443 0.16316 1.69277 0 255 0
0.741384 0.168145 1.69316 0 255 0
0.741326 0.173129 1.69356 0 255 0
0.741268 0.178113 1.69395 0 255 0
0.74121 0.183097 1.69434 0 255 0
0.741151 0.188082 1.69473 0 255 0
0.741093 0.193066 1.69512 0 255 0
0.741035 0.19805 1.69552 0 255 0
0.0913817 0.111911 2.11772 0 255 0
0.0915289 0.116903 2.11795 0 255 0
0.091676 0.121896 2.11818 0 255 0
0.0918231 0.126888 2.11842 0 255 0
0.0919703 0.131881 2.11865 0 255 0
0.0921174 0.136873 2.11889 0 255 0
0.0922645 0.141865 2.11912 0 255 0
0.0924117 0.146858 2.11935 0 255 0
0.0925588 0.15185 2.11959 0 255 0
0.0927059 0.156842 2.11982 0 255 0
0.0928531 0.161835 2.12006 0 255 0
0.0930002 0.166827 2.12029 0 255 0
0.0931474 0.171819 2.12052 0 255 0
0.0932945 0.176812 2.12076 0 255 0
0.0934416 0.181804 2.12099 0 255 0
0.0274455 0.113385 2.12162 0 255 0
0.0275932 0.118378 2.12185 0 255 0
0.0277409 0.12337 2.12208 0 255 0
0.0278886 0.128363 2.1223 0 255 0
0.0280363 0.133356 2.12253 0 255 0
0.028184 0.138348 2.12276 0 255 0
0.0283317 0.143341 2.12298 0 255 0
0.0284794 0.148334 2.12321 0 255 0
0.0286271 0.153326 2.12344 0 255 0
0.0287748 0.158319 2.12366 0 255 0
0.0289225 0.163312 2.12389 0 255 0
0.0290702 0.168304 2.12412 0 255 0
0.0292179 0.173297 2.12434 0 255 0
0.0293656 0.17829 2.12457 0 255 0
0.0295133 0.183282 2.1248 0 255 0
-0.605318 0.122231 1.85982 0 255 0
-0.605339 0.127219 1.86016 0 255 0
-0.605361 0.132207 1.86051 0 255 0
-0.605383 0.137195 1.86085 0 255 0
-0.605405 0.142184 1.8612 0 255 0
-0.605426 0.147172 1.86154 0 255 0
-0.605448 0.15216 1.86189 0 255 0
-0.60547 0.157148 1.86223 0 255 0
-0.605491 0.162136 1.86258 0 255 0
-0.605513 0.167124 1.86292 0 255 0
-0.605535 0.172112 1.86327 0 255 0
-0.605556 0.1771 1.86361 0 255 0
-0.605578 0.182088 1.86396 0 255 0
-0.6056 0.187076 1.8643 0 255 0
-0.605621 0.192064 1.86465 0 255 0
-0.654223 0.125053 1.82037 0 255 0
-0.654244 0.130041 1.82071 0 255 0
-0.654265 0.135029 1.82106 0 255 0
-0.654285 0.140017 1.8214 0 255 0
-0.654306 0.145005 1.82175 0 255 0
-0.654327 0.149993 1.82209 0 255 0
-0.654348 0.154981 1.82244 0 255 0
-0.654368 0.159969 1.82278 0 255 0
-0.654389 0.164957 1.82313 0 255 0
-0.65441 0.169945 1.82347 0 255 0
-0.65443 0.174933 1.82382 0 255 0
-0.654451 0.179921 1.82416 0 255 0
-0.654472 0.184909 1.82451 0 255 0
-0.654493 0.189897 1.82485 0 255 0
-0.654513 0.194885 1.8252 0 255 0
-1.04993 0.157514 1.30399 0 255 0
-1.05001 0.162507 1.30424 0 255 0
-1.05008 0.1675 1.30449 0 255 0
-1.05016 0.172493 1.30474 0 255 0
-1.05024 0.177486 1.30499 0 255 0
-1.05031 0.182479 1.30524 0 255 0
-1.05039 0.187473 1.30549 0 255 0
-1.05047 0.192466 1.30574 0 255 0
-1.05054 0.197459 1.30599 0 255 0
-1.05062 0.202452 1.30624 0 255 0
-1.0507 0.207445 1.3065 0 255 0
-1.05077 0.212438 1.30675 0 255 0
-1.05085 0.217431 1.307 0 255 0
-1.05093 0.222424 1.30725 0 255 0
-1.05101 0.227417 1.3075 0 255 0
-1.06026 0.160526 1.24052 0 255 0
-1.06033 0.165519 1.24077 0 255 0
-1.0604 0.170513 1.24102 0 255 0
-1.06047 0.175506 1.24127 0 255 0
-1.06053 0.180499 1.24152 0 255 0
-1.0606 0.185493 1.24177 0 255 0
-1.06067 0.190486 1.24202 0 255 0
-1.06074 0.195479 1.24227 0 255 0
-1.0608 0.200472 1.24252 0 255 0
-1.06087 0.205466 1.24277 0 255 0
-1.06094 0.210459 1.24302 0 255 0
-1.06101 0.215452 1.24327 0 255 0
-1.06107 0.220446 1.24352 0 255 0
-1.06114 0.225439 1.24377 0 255 0
-1.06121 0.230432 1.24402 0 255 0
-0.836417 0.210516 0.489127 0 255 0
-0.836364 0.215509 0.489396 0 255 0
-0.836311 0.220501 0.489665 0 255 0
-0.836257 0.225494 0.489935 0 255 0
-0.836204 0.230486 0.490204 0 255 0
-0.836151 0.235479 0.490473 0 255 0
-0.836097 0.240471 0.490742 0 255 0
-0.836044 0.245464 0.491011 0 255 0
-0.835991 0.250456 0.49128 0 255 0
-0.835938 0.255448 0.491549 0 255 0
-0.835884 0.260441 0.491818 0 255 0
-0.835831 0.265433 0.492088 0 255 0
-0.835778 0.270426 0.492357 0 255 0
-0.835724 0.275418 0.492626 0 255 0
-0.835671 0.280411 0.492895 0 255 0
-0.800149 0.213373 0.428335 0 255 0
-0.800097 0.218365 0.42861 0 255 0
-0.800045 0.223357 0.428885 0 255 0
-0.799993 0.228349 0.42916 0 255 0
-0.799941 0.233342 0.429435 0 255 0
-0.799889 0.238334 0.42971 0 255 0
-0.799837 0.243326 0.429985 0 255 0
-0.799785 0.248318 0.43026 0 255 0
-0.799733 0.25331 0.430535 0 255 0
-0.799681 0.258302 0.43081 0 255 0
-0.799629 0.263295 0.431085 0 255 0
-0.799577 0.268287 0.43136 0 255 0
-0.799525 0.273279 0.431635 0 255 0
-0.799473 0.278271 0.43191 0 255 0
-0.799421 0.283263 0.432184 0 255 0
-0.857505 -0.239418 1.56402 0 255 0
-0.854792 -0.239604 1.56821 0 255 0
-0.85208 -0.23979 1.57241 0 255 0
-0.849368 -0.239976 1.57661 0 255 0
-0.846655 -0.240162 1.5808 0 255 0
-0.843943 -0.240348 1.585 0 255 0
-0.84123 -0.240534 1.58919 0 255 0
-0.838518 -0.24072 1.59339 0 255 0
-0.835806 -0.240906 1.59759 0 255 0
-0.833093 -0.241092 1.60178 0 255 0
-0.830381 -0.241278 1.60598 0 255 0
-0.827668 -0.241464 1.61018 0 255 0
-0.824956 -0.24165 1.61437 0 255 0
-0.822244 -0.241836 1.61857 0 255 0
-0.819531 -0.242022 1.62276 0 255 0
-0.85976 -0.166272 1.56897 0 255 0
-0.857042 -0.166459 1.57316 0 255 0
-0.854324 -0.166645 1.57735 0 255 0
-0.851605 -0.166832 1.58155 0 255 0
-0.848887 -0.167018 1.58574 0 255 0
-0.846169 -0.167205 1.58993 0 255 0
-0.843451 -0.167391 1.59412 0 255 0
-0.840733 -0.167578 1.59832 0 255 0
-0.838014 -0.167765 1.60251 0 255 0
-0.835296 -0.167951 1.6067 0 255 0
-0.832578 -0.168138 1.61089 0 255 0
-0.82986 -0.168324 1.61509 0 255 0
-0.827142 -0.168511 1.61928 0 255 0
-0.824423 -0.168697 1.62347 0 255 0
-0.821705 -0.168884 1.62766 0 255 0
0.424361 -0.209994 2.01884 0 255 0
0.428732 -0.209924 2.01642 0 255 0
0.433102 -0.209855 2.01399 0 255 0
0.437472 -0.209785 2.01156 0 255 0
0.441843 -0.209716 2.00913 0 255 0
0.446213 -0.209647 2.0067 0 255 0
0.450583 -0.209577 2.00427 0 255 0
0.454954 -0.209508 2.00185 0 255 0
0.459324 -0.209438 1.99942 0 255 0
0.463694 -0.209369 1.99699 0 255 0
0.468065 -0.209299 1.99456 0 255 0
0.472435 -0.20923 1.99213 0 255 0
0.476805 -0.209161 1.98971 0 255 0
0.481176 -0.209091 1.98728 0 255 0
0.485546 -0.209022 1.98485 0 255 0
0.424031 -0.142489 2.02224 0 255 0
0.428407 -0.14242 2.01982 0 255 0
0.432783 -0.142351 2.01741 0 255 0
0.437158 -0.142281 2.01499 0 255 0
0.441534 -0.142212 2.01257 0 255 0
0.44591 -0.142143 2.01015 0 255 0
0.450286 -0.142073 2.00773 0 255 0
0.454662 -0.142004 2.00532 0 255 0
0.459038 -0.141935 2.0029 0 255 0
0.463413 -0.141866 2.00048 0 255 0
0.467789 -0.141796 1.99806 0 255 0
0.472165 -0.141727 1.99564 0 255 0
0.476541 -0.141658 1.99322 0 255 0
0.480917 -0.141588 1.99081 0 255 0
0.485292 -0.141519 1.98839 0 255 0
0.969204 -0.184267 1.25186 0 255 0
0.969737 -0.183914 1.2469 0 255 0
0.97027 -0.183562 1.24194 0 255 0
0.970802 -0.183209 1.23699 0 255 0
0.971335 -0.182856 1.23203 0 255 0
0.971868 -0.182504 1.22707 0 255 0
0.972401 -0.182151 1.22211 0 255 0
0.972933 -0.181798 1.21715 0 255 0
0.973466 -0.181445 1.21219 0 255 0
0.973999 -0.181093 1.20723 0 255 0
0.974532 -0.18074 1.20227 0 255 0
0.975064 -0.180387 1.19731 0 255 0
0.975597 -0.180035 1.19235 0 255 0
0.97613 -0.179682 1.1874 0 255 0
0.976663 -0.179329 1.18244 0 255 0
0.972473 -0.114011 1.25654 0 255 0
0.973004 -0.113659 1.25158 0 255 0
0.973534 -0.113307 1.24662 0 255 0
0.974064 -0.112954 1.24166 0 255 0
0.974595 -0.112602 1.23671 0 255 0
0.975125 -0.11225 1.23175 0 255 0
0.975656 -0.111898 1.22679 0 255 0
0.976186 -0.111546 1.22183 0 255 0
0.976716 -0.111193 1.21687 0 255 0
0.977247 -0.110841 1.21191 0 255 0
0.977777 -0.110489 1.20695 0 255 0
0.978308 -0.110137 1.20199 0 255 0
0.978838 -0.109785 1.19703 0 255 0
0.979368 -0.109432 1.19207 0 255 0
0.979899 -0.10908 1.18711 0 255 0
0.195153 -0.119666 0.0394204 0 255 0
0.190165 -0.119659 0.039062 0 255 0
0.185178 -0.119652 0.0387036 0 255 0
0.180191 -0.119645 0.0383452 0 255 0
0.175204 -0.119637 0.0379868 0 255 0
0.170217 -0.11963 0.0376285 0 255 0
0.16523 -0.119623 0.0372701 0 255 0
0.160243 -0.119616 0.0369117 0 255 0
0.155256 -0.119608 0.0365533 0 255 0
0.150268 -0.119601 0.0361949 0 255 0
0.145281 -0.119594 0.0358365 0 255 0
0.140294 -0.119587 0.0354782 0 255 0
0.135307 -0.119579 0.0351198 0 255 0
0.13032 -0.119572 0.0347614 0 255 0
0.125333 -0.119565 0.034403 0 255 0
0.196031 -0.0531639 0.039223 0 255 0
0.191045 -0.0531538 0.038841 0 255 0
0.18606 -0.0531436 0.038459 0 255 0
0.181074 -0.0531335 0.0380769 0 255 0
0.176089 -0.0531233 0.0376949 0 255 0
0.171104 -0.0531132 0.0373129 0 255 0
0.166118 -0.0531031 0.0369309 0 255 0
0.161133 -0.0530929 0.0365488 0 255 0
0.156148 -0.0530828 0.0361668 0 255 0
0.151162 -0.0530726 0.0357848 0 255 0
0.146177 -0.0530625 0.0354028 0 255 0
0.141191 -0.0530523 0.0350207 0 255 0
0.136206 -0.0530422 0.0346387 0 255 0
0.131221 -0.053032 0.0342567 0 255 0
0.126235 -0.0530219 0.0338747 0 255 0
0.948335 -0.189092 1.32802 0 255 0
0.950339 -0.1888 1.32345 0 255 0
0.952343 -0.188508 1.31888 0 255 0
0.954346 -0.188216 1.31431 0 255 0
0.95635 -0.187924 1.30973 0 255 0
0.958354 -0.187632 1.30516 0 255 0
0.960358 -0.18734 1.30059 0 255 0
0.962362 -0.187047 1.29602 0 255 0
0.964365 -0.186755 1.29145 0 255 0
0.966369 -0.186463 1.28688 0 255 0
0.968373 -0.186171 1.2823 0 255 0
0.970376 -0.185879 1.27773 0 255 0
0.97238 -0.185587 1.27316 0 255 0
0.974384 -0.185295 1.26859 0 255 0
0.976388 -0.185002 1.26402 0 255 0
0.951272 -0.1193 1.33359 0 255 0
0.953269 -0.119009 1.32902 0 255 0
0.955267 -0.118717 1.32445 0 255 0
0.957265 -0.118426 1.31987 0 255 0
0.959263 -0.118134 1.3153 0 255 0
0.96126 -0.117843 1.31072 0 255 0
0.963258 -0.117551 1.30615 0 255 0
0.965256 -0.117259 1.30157 0 255 0
0.967254 -0.116968 1.297 0 255 0
0.969251 -0.116676 1.29243 0 255 0
0.971249 -0.116385 1.28785 0 255 0
0.973247 -0.116093 1.28328 0 255 0
0.975244 -0.115802 1.2787 0 255 0
0.977242 -0.11551 1.27413 0 255 0
0.97924 -0.115218 1.26955 0 255 0
0.349374 -0.212359 2.05068 0 255 0
0.354224 -0.212344 2.04947 0 255 0
0.359074 -0.21233 2.04825 0 255 0
0.363924 -0.212315 2.04704 0 255 0
0.368775 -0.212301 2.04583 0 255 0
0.373625 -0.212286 2.04461 0 255 0
0.378475 -0.212271 2.0434 0 255 0
0.383325 -0.212257 2.04218 0 255 0
0.388176 -0.212242 2.04097 0 255 0
0.393026 -0.212228 2.03975 0 255 0
0.397876 -0.212213 2.03854 0 255 0
0.402726 -0.212199 2.03732 0 255 0
0.407577 -0.212184 2.03611 0 255 0
0.412427 -0.21217 2.0349 0 255 0
0.417277 -0.212155 2.03368 0 255 0
0.351137 -0.1417 2.05849 0 255 0
0.355984 -0.141682 2.05726 0 255 0
0.360831 -0.141664 2.05603 0 255 0
0.365678 -0.141646 2.05481 0 255 0
0.370525 -0.141627 2.05358 0 255 0
0.375372 -0.141609 2.05235 0 255 0
0.380219 -0.141591 2.05112 0 255 0
0.385066 -0.141573 2.0499 0 255 0
0.389913 -0.141555 2.04867 0 255 0
0.39476 -0.141536 2.04744 0 255 0
0.399607 -0.141518 2.04621 0 255 0
0.404454 -0.1415 2.04499 0 255 0
0.409301 -0.141482 2.04376 0 255 0
0.414147 -0.141464 2.04253 0 255 0
0.418994 -0.141446 2.0413 0 255 0
-0.072929 -0.209653 -0.0360919 0 0 255
-0.0728726 -0.209792 -0.0310942 0 0 255
-0.0728162 -0.209931 -0.0260964 0 0 255
-0.0727598 -0.21007 -0.0210987 0 0 255
-0.0727034 -0.210208 -0.0161009 0 0 255
-0.0726469 -0.210347 -0.0111032 0 0 255
-0.0725905 -0.210486 -0.00610541 0 0 255
-0.0725341 -0.210625 -0.00110765 0 0 255
-0.0724777 -0.210764 0.0038901 0 0 255
-0.0724213 -0.210903 0.00888785 0 0 255
-0.0723649 -0.211042 0.0138856 0 0 255
-0.0723085 -0.211181 0.0188834 0 0 255
-0.072252 -0.21132 0.0238811 0 0 255
-0.0721956 -0.211459 0.0288789 0 0 255
-0.0721392 -0.211598 0.0338766 0 0 255
-0.0186802 -0.210687 -0.0387611 0 0 255
-0.0186384 -0.210805 -0.0337627 0 0 255
-0.0185965 -0.210922 -0.0287642 0 0 255
-0.0185547 -0.21104 -0.0237658 0 0 255
-0.0185129 -0.211158 -0.0187674 0 0 255
-0.0184711 -0.211275 -0.0137689 0 0 255
-0.0184293 -0.211393 -0.00877047 0 0 255
-0.0183875 -0.21151 -0.00377203 0 0 255
-0.0183457 -0.211628 0.00122641 0 0 255
-0.0183039 -0.211745 0.00622485 0 0 255
-0.018262 -0.211863 0.0112233 0 0 255
-0.0182202 -0.211981 0.0162217 0 0 255
-0.0181784 -0.212098 0.0212202 0 0 255
-0.0181366 -0.212216 0.0262186 0 0 255
-0.0180948 -0.212333 0.0312171 0 0 255
0.523924 -0.208782 0.218152 0 0 255
0.520986 -0.208714 0.222197 0 0 255
0.518048 -0.208646 0.226242 0 0 255
0.51511 -0.208579 0.230287 0 0 255
0.512172 -0.208511 0.234333 0 0 255
0.509233 -0.208443 0.238378 0 0 255
0.506295 -0.208375 0.242423 0 0 255
0.503357 -0.208307 0.246468 0 0 255
0.500419 -0.20824 0.250513 0 0 255
0.497481 -0.208172 0.254558 0 0 255
0.494543 -0.208104 0.258604 0 0 255
0.491605 -0.208036 0.262649 0 0 255
0.488667 -0.207969 0.266694 0 0 255
0.485729 -0.207901 0.270739 0 0 255
0.482791 -0.207833 0.274784 0 0 255
0.574971 -0.210802 0.25293 0 0 255
0.572042 -0.21073 0.256981 0 0 255
0.569113 -0.210659 0.261032 0 0 255
0.566183 -0.210588 0.265084 0 0 255
0.563254 -0.210516 0.269135 0 0 255
0.560324 -0.210445 0.273186 0 0 255
0.557395 -0.210373 0.277238 0 0 255
0.554465 -0.210302 0.281289 0 0 255
0.551536 -0.210231 0.28534 0 0 255
0.548606 -0.210159 0.289391 0 0 255
0.545677 -0.210088 0.293443 0 0 255
0.542747 -0.210016 0.297494 0 0 255
0.539818 -0.209945 0.301545 0 0 255
0.536888 -0.209874 0.305597 0 0 255
0.533959 -0.209802 0.309648 0 0 255
0.944606 -0.262072 0.769207 0 0 255
0.939788 -0.261865 0.770525 0 0 255
0.934969 -0.261657 0.771843 0 0 255
0.93015 -0.261449 0.77316 0 0 255
0.925331 -0.261241 0.774478 0 0 255
0.920512 -0.261034 0.775795 0 0 255
0.915694 -0.260826 0.777113 0 0 255
0.910875 -0.260618 0.778431 0 0 255
0.906056 -0.260411 0.779748 0 0 255
0.901237 -0.260203 0.781066 0 0 255
0.896419 -0.259995 0.782384 0 0 255
0.8916 -0.259787 0.783701 0 0 255
0.886781 -0.25958 0.785019 0 0 255
0.881962 -0.259372 0.786336 0 0 255
0.877143 -0.259164 0.787654 0 0 255
0.961002 -0.266662 0.828012 0 0 255
0.95618 -0.266451 0.829318 0 0 255
0.951358 -0.26624 0.830623 0 0 255
0.946536 -0.266029 0.831929 0 0 255
0.941714 -0.265818 0.833235 0 0 255
0.936893 -0.265607 0.834541 0 0 255
0.932071 -0.265396 0.835846 0 0 255
0.927249 -0.265185 0.837152 0 0 255
0.922427 -0.264974 0.838458 0 0 255
0.917605 -0.264763 0.839764 0 0 255
0.912783 -0.264552 0.84107 0 0 255
0.907961 -0.264341 0.842375 0 0 255
0.903139 -0.26413 0.843681 0 0 255
0.898318 -0.263919 0.844987 0 0 255
0.893496 -0.263709 0.846293 0 0 255
0.774659 -0.315704 1.61106 0 0 255
0.770749 -0.315218 1.60798 0 0 255
0.766839 -0.314731 1.60491 0 0 255
0.762929 -0.314245 1.60183 0 0 255
0.759019 -0.313758 1.59875 0 0 255
0.755109 -0.313272 1.59567 0 0 255
0.751198 -0.312785 1.59259 0 0 255
0.747288 -0.312299 1.58952 0 0 255
0.743378 -0.311813 1.58644 0 0 255
0.739468 -0.311326 1.58336 0 0 255
0.735558 -0.31084 1.58028 0 0 255
0.731647 -0.310353 1.5772 0 0 255
0.727737 -0.309867 1.57413 0 0 255
0.723827 -0.30938 1.57105 0 0 255
0.719917 -0.308894 1.56797 0 0 255
0.737442 -0.317425 1.6583 0 0 255
0.733533 -0.316938 1.65523 0 0 255
0.729623 -0.316451 1.65215 0 0 255
0.725714 -0.315964 1.64907 0 0 255
0.721805 -0.315477 1.64599 0 0 255
0.717896 -0.31499 1.64291 0 0 255
0.713987 -0.314503 1.63983 0 0 255
0.710077 -0.314016 1.63675 0 0 255
0.706168 -0.31353 1.63367 0 0 255
0.702259 -0.313043 1.63059 0 0 255
0.69835 -0.312556 1.62751 0 0 255
0.69444 -0.312069 1.62443 0 0 255
0.690531 -0.311582 1.62136 0 0 255
0.686622 -0.311095 1.61828 0 0 255
0.682713 -0.310608 1.6152 0 0 255
0.0950192 -0.331895 2.08119 0 0 255
0.0947235 -0.331498 2.07622 0 0 255
0.0944278 -0.331101 2.07124 0 0 255
0.0941321 -0.330703 2.06626 0 0 255
0.0938364 -0.330306 2.06129 0 0 255
0.0935408 -0.329909 2.05631 0 0 255
0.0932451 -0.329512 2.05134 0 0 255
0.0929494 -0.329114 2.04636 0 0 255
0.0926537 -0.328717 2.04139 0 0 255
0.092358 -0.32832 2.03641 0 0 255
0.0920623 -0.327923 2.03144 0 0 255
0.0917666 -0.327525 2.02646 0 0 255
0.0914709 -0.327128 2.02149 0 0 255
0.0911753 -0.326731 2.01651 0 0 255
0.0908796 -0.326334 2.01154 0 0 255
0.0318867 -0.332061 2.08541 0 0 255
0.0315921 -0.331663 2.08044 0 0 255
0.0312975 -0.331266 2.07546 0 0 255
0.0310029 -0.330868 2.07048 0 0 255
0.0307083 -0.33047 2.06551 0 0 255
0.0304136 -0.330073 2.06053 0 0 255
0.030119 -0.329675 2.05556 0 0 255
0.0298244 -0.329277 2.05058 0 0 255
0.0295298 -0.32888 2.04561 0 0 255
0.0292352 -0.328482 2.04063 0 0 255
0.0289405 -0.328084 2.03566 0 0 255
0.0286459 -0.327687 2.03068 0 0 255
0.0283513 -0.327289 2.02571 0 0 255
0.0280567 -0.326892 2.02073 0 0 255
0.0277621 -0.326494 2.01575 0 0 255
-0.595612 -0.320796 1.84909 0 0 255
-0.592369 -0.320337 1.84531 0 0 255
-0.589127 -0.319877 1.84153 0 0 255
-0.585884 -0.319417 1.83775 0 0 255
-0.582641 -0.318957 1.83398 0 0 255
-0.579399 -0.318497 1.8302 0 0 255
-0.576156 -0.318038 1.82642 0 0 255
-0.572914 -0.317578 1.82264 0 0 255
-0.569671 -0.317118 1.81886 0 0 255
-0.566429 -0.316658 1.81509 0 0 255
-0.563186 -0.316198 1.81131 0 0 255
-0.559944 -0.315739 1.80753 0 0 255
-0.556701 -0.315279 1.80375 0 0 255
-0.553459 -0.314819 1.79997 0 0 255
-0.550216 -0.314359 1.7962 0 0 255
-0.643067 -0.320279 1.80895 0 0 255
-0.639822 -0.319826 1.80517 0 0 255
-0.636578 -0.319373 1.80139 0 0 255
-0.633333 -0.318921 1.79762 0 0 255
-0.630089 -0.318468 1.79384 0 0 255
-0.626844 -0.318016 1.79006 0 0 255
-0.6236 -0.317563 1.78629 0 0 255
-0.620355 -0.31711 1.78251 0 0 255
-0.617111 -0.316658 1.77873 0 0 255
-0.613866 -0.316205 1.77495 0 0 255
-0.610622 -0.315753 1.77118 0 0 255
-0.607377 -0.3153 1.7674 0 0 255
-0.604133 -0.314847 1.76362 0 0 255
-0.600888 -0.314395 1.75984 0 0 255
-0.597644 -0.313942 1.75607 0 0 255
-1.04099 -0.293827 1.27697 0 0 255
-1.03615 -0.293504 1.27574 0 0 255
-1.03132 -0.293181 1.27452 0 0 255
-1.02648 -0.292858 1.27329 0 0 255
-1.02164 -0.292535 1.27207 0 0 255
-1.01681 -0.292212 1.27084 0 0 255
-1.01197 -0.29189 1.26961 0 0 255
-1.00713 -0.291567 1.26839 0 0 255
-1.0023 -0.291244 1.26716 0 0 255
-0.997461 -0.290921 1.26594 0 0 255
-0.992624 -0.290598 1.26471 0 0 255
-0.987787 -0.290275 1.26348 0 0 255
-0.982951 -0.289953 1.26226 0 0 255
-0.978114 -0.28963 1.26103 0 0 255
-0.973278 -0.289307 1.25981 0 0 255
-1.0532 -0.290142 1.22027 0 0 255
-1.04836 -0.289825 1.21905 0 0 255
-1.04352 -0.289508 1.21783 0 0 255
-1.03869 -0.289191 1.21662 0 0 255
-1.03385 -0.288874 1.2154 0 0 255
-1.02901 -0.288556 1.21418 0 0 255
-1.02417 -0.288239 1.21296 0 0 255
-1.01933 -0.287922 1.21174 0 0 255
-1.01449 -0.287605 1.21052 0 0 255
-1.00965 -0.287288 1.2093 0 0 255
-1.00481 -0.286971 1.20809 0 0 255
-0.999974 -0.286653 1.20687 0 0 255
-0.995136 -0.286336 1.20565 0 0 255
-0.990297 -0.286019 1.20443 0 0 255
-0.985458 -0.285702 1.20321 0 0 255
-0.830695 -0.239561 0.457557 0 0 255
-0.826687 -0.239497 0.460545 0 0 255
-0.822678 -0.239433 0.463533 0 0 255
-0.81867 -0.23937 0.466521 0 0 255
-0.814661 -0.239306 0.469509 0 0 255
-0.810653 -0.239242 0.472497 0 0 255
-0.806644 -0.239179 0.475485 0 0 255
-0.802636 -0.239115 0.478473 0 0 255
-0.798628 -0.239051 0.481461 0 0 255
-0.794619 -0.238988 0.484449 0 0 255
-0.790611 -0.238924 0.487437 0 0 255
-0.786602 -0.23886 0.490425 0 0 255
-0.782594 -0.238797 0.493413 0 0 255
-0.778585 -0.238733 0.496401 0 0 255
-0.774577 -0.238669 0.499389 0 0 255
-0.791243 -0.235947 0.404017 0 0 255
-0.787233 -0.235884 0.407003 0 0 255
-0.783223 -0.235821 0.409989 0 0 255
-0.779213 -0.235758 0.412975 0 0 255
-0.775203 -0.235696 0.415961 0 0 255
-0.771193 -0.235633 0.418947 0 0 255
-0.767183 -0.23557 0.421933 0 0 255
-0.763173 -0.235507 0.424919 0 0 255
-0.759163 -0.235445 0.427905 0 0 255
-0.755153 -0.235382 0.430891 0 0 255
-0.751143 -0.235319 0.433877 0 0 255
-0.747133 -0.235256 0.436863 0 0 255
-0.743123 -0.235194 0.439849 0 0 255
-0.739113 -0.235131 0.442835 0 0 255
-0.735103 -0.235068 0.445821 0 0 255
-0.0697535 0.00288481 -0.0119928 0 0 255
-0.069702 0.00286573 -0.00699307 0 0 255
-0.0696505 0.00284664 -0.00199337 0 0 255
-0.069599 0.00282756 0.00300633 0 0 255
-0.0695475 0.00280848 0.00800603 0 0 255
-0.0694961 0.0027894 0.0130057 0 0 255
-0.0694446 0.00277031 0.0180054 0 0 255
-0.0693931 0.00275123 0.0230051 0 0 255
-0.0693416 0.00273215 0.0280048 0 0 255
-0.0692902 0.00271307 0.0330045 0 0 255
-0.0692387 0.00269399 0.0380042 0 0 255
-0.0691872 0.0026749 0.0430039 0 0 255
-0.0691357 0.00265582 0.0480036 0 0 255
-0.0690842 0.00263674 0.0530033 0 0 255
-0.0690328 0.00261766 0.058003 0 0 255
-0.0057776 0.00228119 -0.013721 0 0 255
-0.00574336 0.00226123 -0.00872115 0 0 255
-0.00570911 0.00224127 -0.00372131 0 0 255
-0.00567487 0.00222131 0.00127853 0 0 255
-0.00564062 0.00220135 0.00627838 0 0 255
-0.00560638 0.00218139 0.0112782 0 0 255
-0.00557213 0.00216143 0.0162781 0 0 255
-0.00553789 0.00214147 0.0212779 0 0 255
-0.00550364 0.00212151 0.0262777 0 0 255
-0.0054694 0.00210155 0.0312776 0 0 255
-0.00543515 0.00208159 0.0362774 0 0 255
-0.00540091 0.00206163 0.0412773 0 0 255
-0.00536666 0.00204167 0.0462771 0 0 255
-0.00533241 0.00202171 0.051277 0 0 255
-0.00529817 0.00200175 0.0562768 0 0 255
0.542941 -0.00669291 0.240772 0 0 255
0.539583 -0.00673786 0.244477 0 0 255
0.536226 -0.0067828 0.248182 0 0 255
0.532869 -0.00682774 0.251887 0 0 255
0.529511 -0.00687269 0.255592 0 0 255
0.526154 -0.00691763 0.259297 0 0 255
0.522797 -0.00696258 0.263002 0 0 255
0.51944 -0.00700752 0.266707 0 0 255
0.516082 -0.00705246 0.270412 0 0 255
0.512725 -0.00709741 0.274117 0 0 255
0.509368 -0.00714235 0.277822 0 0 255
0.50601 -0.0071873 0.281527 0 0 255
0.502653 -0.00723224 0.285231 0 0 255
0.499296 -0.00727718 0.288936 0 0 255
0.495938 -0.00732213 0.292641 0 0 255
0.592967 -0.00817488 0.282081 0 0 255
0.589613 -0.00822558 0.285789 0 0 255
0.586258 -0.00827628 0.289496 0 0 255
0.582904 -0.00832697 0.293203 0 0 255
0.579549 -0.00837767 0.29691 0 0 255
0.576194 -0.00842837 0.300618 0 0 255
0.57284 -0.00847907 0.304325 0 0 255
0.569485 -0.00852977 0.308032 0 0 255
0.56613 -0.00858046 0.311739 0 0 255
0.562776 -0.00863116 0.315447 0 0 255
0.559421 -0.00868186 0.319154 0 0 255
0.556066 -0.00873256 0.322861 0 0 255
0.552712 -0.00878326 0.326568 0 0 255
0.549357 -0.00883395 0.330276 0 0 255
0.546003 -0.00888465 0.333983 0 0 255
0.955002 -0.049482 0.77924 0 0 255
0.950215 -0.0494256 0.780682 0 0 255
0.945428 -0.0493691 0.782124 0 0 255
0.940641 -0.0493126 0.783566 0 0 255
0.935854 -0.0492561 0.785008 0 0 255
0.931066 -0.0491996 0.786451 0 0 255
0.926279 -0.0491431 0.787893 0 0 255
0.921492 -0.0490867 0.789335 0 0 255
0.916705 -0.0490302 0.790777 0 0 255
0.911918 -0.0489737 0.79222 0 0 255
0.907131 -0.0489172 0.793662 0 0 255
0.902344 -0.0488607 0.795104 0 0 255
0.897556 -0.0488043 0.796546 0 0 255
0.892769 -0.0487478 0.797988 0 0 255
0.887982 -0.0486913 0.799431 0 0 255
0.971579 -0.0525226 0.838006 0 0 255
0.966786 -0.0524661 0.83943 0 0 255
0.961993 -0.0524096 0.840854 0 0 255
0.957201 -0.0523531 0.842277 0 0 255
0.952408 -0.0522966 0.843701 0 0 255
0.947615 -0.0522401 0.845125 0 0 255
0.942823 -0.0521836 0.846549 0 0 255
0.93803 -0.0521271 0.847972 0 0 255
0.933237 -0.0520707 0.849396 0 0 255
0.928445 -0.0520142 0.85082 0 0 255
0.923652 -0.0519577 0.852244 0 0 255
0.918859 -0.0519012 0.853667 0 0 255
0.914067 -0.0518447 0.855091 0 0 255
0.909274 -0.0517882 0.856515 0 0 255
0.904481 -0.0517317 0.857939 0 0 255
0.776176 -0.101079 1.62417 0 0 255
0.772403 -0.100777 1.6209 0 0 255
0.76863 -0.100475 1.61764 0 0 255
0.764857 -0.100173 1.61437 0 0 255
0.761084 -0.0998714 1.6111 0 0 255
0.757311 -0.0995695 1.60783 0 0 255
0.753538 -0.0992676 1.60457 0 0 255
0.749765 -0.0989657 1.6013 0 0 255
0.745993 -0.0986638 1.59803 0 0 255
0.74222 -0.0983619 1.59477 0 0 255
0.738447 -0.09806 1.5915 0 0 255
0.734674 -0.0977582 1.58823 0 0 255
0.730901 -0.0974563 1.58496 0 0 255
0.727128 -0.0971544 1.5817 0 0 255
0.723355 -0.0968525 1.57843 0 0 255
0.735465 -0.107004 1.67127 0 0 255
0.731692 -0.106699 1.668 0 0 255
0.727919 -0.106395 1.66473 0 0 255
0.724145 -0.10609 1.66147 0 0 255
0.720372 -0.105786 1.6582 0 0 255
0.716599 -0.105482 1.65494 0 0 255
0.712825 -0.105177 1.65167 0 0 255
0.709052 -0.104873 1.6484 0 0 255
0.705278 -0.104568 1.64514 0 0 255
0.701505 -0.104264 1.64187 0 0 255
0.697732 -0.103959 1.6386 0 0 255
0.693958 -0.103655 1.63534 0 0 255
0.690185 -0.10335 1.63207 0 0 255
0.686412 -0.103046 1.6288 0 0 255
0.682638 -0.102742 1.62554 0 0 255
0.0936157 -0.118155 2.10107 0 0 255
0.094468 -0.117568 2.09618 0 0 255
0.0953204 -0.116981 2.09129 0 0 255
0.0961727 -0.116394 2.0864 0 0 255
0.0970251 -0.115807 2.08151 0 0 255
0.0978774 -0.11522 2.07661 0 0 255
0.0987298 -0.114633 2.07172 0 0 255
0.0995821 -0.114046 2.06683 0 0 255
0.100434 -0.113459 2.06194 0 0 255
0.101287 -0.112872 2.05705 0 0 255
0.102139 -0.112285 2.05216 0 0 255
0.102991 -0.111698 2.04726 0 0 255
0.103844 -0.111111 2.04237 0 0 255
0.104696 -0.110524 2.03748 0 0 255
0.105549 -0.109937 2.03259 0 0 255
0.0303434 -0.117352 2.10429 0 0 255
0.031195 -0.116765 2.0994 0 0 255
0.0320467 -0.116177 2.0945 0 0 255
0.0328983 -0.115589 2.08961 0 0 255
0.03375 -0.115002 2.08472 0 0 255
